ply
format ascii 1.0
comment VCGLIB generated
element vertex 658
property float x
property float y
property float z
element face 0
property list uchar int vertex_indices
end_header
-0.118745 -0.096817 0.994757 
-0.110569 -0.0971029 0.997695 
-0.108864 -0.0971029 0.997695 
-0.107476 -0.0973905 1.00065 
-0.123482 -0.0948375 0.991837 
-0.121787 -0.0948375 0.991837 
-0.120092 -0.0948375 0.991837 
-0.118745 -0.0951167 0.994757 
-0.117045 -0.0951167 0.994757 
-0.115344 -0.0951167 0.994757 
-0.113644 -0.0951167 0.994757 
-0.112274 -0.0953976 0.997695 
-0.110569 -0.0953976 0.997695 
-0.108864 -0.0953976 0.997695 
-0.107476 -0.0956801 1.00065 
-0.105453 -0.0953976 0.997695 
-0.102042 -0.0953976 0.997695 
-0.100337 -0.0953976 0.997695 
-0.098924 -0.0956801 1.00065 
-0.0972136 -0.0956801 1.00065 
-0.0952212 -0.0953976 0.997695 
-0.133263 -0.0928696 0.988934 
-0.131573 -0.0928696 0.988934 
-0.130263 -0.0931422 0.991837 
-0.128568 -0.0931422 0.991837 
-0.126873 -0.0931422 0.991837 
-0.125178 -0.0931422 0.991837 
-0.123482 -0.0931422 0.991837 
-0.121787 -0.0931422 0.991837 
-0.120445 -0.0934164 0.994757 
-0.119096 -0.0936923 0.997695 
-0.117738 -0.0939697 1.00065 
-0.115685 -0.0936923 0.997695 
-0.114317 -0.0939697 1.00065 
-0.104364 -0.0942489 1.00362 
-0.102649 -0.0942489 1.00362 
-0.100933 -0.0942489 1.00362 
-0.0992178 -0.0942489 1.00362 
-0.0975024 -0.0942489 1.00362 
-0.0955032 -0.0939697 1.00065 
-0.0935159 -0.0936923 0.997695 
-0.0918106 -0.0936923 0.997695 
-0.134953 -0.0911792 0.988934 
-0.133263 -0.0911792 0.988934 
-0.131573 -0.0911792 0.988934 
-0.130263 -0.0914469 0.991837 
-0.128568 -0.0914469 0.991837 
-0.126873 -0.0914469 0.991837 
-0.125178 -0.0914469 0.991837 
-0.123482 -0.0914469 0.991837 
-0.122146 -0.0917161 0.994757 
-0.120445 -0.0917161 0.994757 
-0.119096 -0.0919869 0.997695 
-0.117738 -0.0922594 1.00065 
-0.115685 -0.0919869 0.997695 
-0.114317 -0.0922594 1.00065 
-0.10608 -0.0925334 1.00362 
-0.103748 -0.0919869 0.997695 
-0.102345 -0.0922594 1.00065 
-0.100634 -0.0922594 1.00065 
-0.098924 -0.0922594 1.00065 
-0.0972136 -0.0922594 1.00065 
-0.0952212 -0.0919869 0.997695 
-0.0935159 -0.0919869 0.997695 
-0.0918106 -0.0919869 0.997695 
-0.08984 -0.0917161 0.994757 
-0.0881397 -0.0917161 0.994757 
-0.0864394 -0.0917161 0.994757 
-0.0830388 -0.0917161 0.994757 
-0.0813385 -0.0917161 0.994757 
-0.0796383 -0.0917161 0.994757 
-0.077938 -0.0917161 0.994757 
-0.0764628 -0.0919869 0.997695 
-0.0747575 -0.0919869 0.997695 
-0.0730522 -0.0919869 0.997695 
-0.0713469 -0.0919869 0.997695 
-0.136644 -0.0894889 0.988934 
-0.134953 -0.0894889 0.988934 
-0.133263 -0.0894889 0.988934 
-0.131573 -0.0894889 0.988934 
-0.130263 -0.0897516 0.991837 
-0.128568 -0.0897516 0.991837 
-0.126873 -0.0897516 0.991837 
-0.125178 -0.0897516 0.991837 
-0.123482 -0.0897516 0.991837 
-0.122146 -0.0900158 0.994757 
-0.120445 -0.0900158 0.994757 
-0.119096 -0.0902816 0.997695 
-0.117738 -0.090549 1.00065 
-0.115685 -0.0902816 0.997695 
-0.11398 -0.0902816 0.997695 
-0.112941 -0.090818 1.00362 
-0.111226 -0.090818 1.00362 
-0.10608 -0.090818 1.00362 
-0.103442 -0.0900158 0.994757 
-0.102042 -0.0902816 0.997695 
-0.100337 -0.0902816 0.997695 
-0.098924 -0.090549 1.00065 
-0.0969265 -0.0902816 0.997695 
-0.0952212 -0.0902816 0.997695 
-0.0932406 -0.0900158 0.994757 
-0.0915403 -0.0900158 0.994757 
-0.08984 -0.0900158 0.994757 
-0.087881 -0.0897516 0.991837 
-0.0864394 -0.0900158 0.994757 
-0.0844904 -0.0897516 0.991837 
-0.0830388 -0.0900158 0.994757 
-0.0813385 -0.0900158 0.994757 
-0.0796383 -0.0900158 0.994757 
-0.077938 -0.0900158 0.994757 
-0.0764628 -0.0902816 0.997695 
-0.0747575 -0.0902816 0.997695 
-0.0728371 -0.0900158 0.994757 
-0.0713469 -0.0902816 0.997695 
-0.0694365 -0.0900158 0.994757 
-0.0677362 -0.0900158 0.994757 
-0.0660359 -0.0900158 0.994757 
-0.0643356 -0.0900158 0.994757 
-0.136245 -0.0875423 0.986048 
-0.134953 -0.0877986 0.988934 
-0.133263 -0.0877986 0.988934 
-0.131573 -0.0877986 0.988934 
-0.129882 -0.0877986 0.988934 
-0.128192 -0.0877986 0.988934 
-0.126502 -0.0877986 0.988934 
-0.124811 -0.0877986 0.988934 
-0.123482 -0.0880563 0.991837 
-0.122146 -0.0883155 0.994757 
-0.120445 -0.0883155 0.994757 
-0.119096 -0.0885763 0.997695 
-0.117738 -0.0888386 1.00065 
-0.115685 -0.0885763 0.997695 
-0.11398 -0.0885763 0.997695 
-0.112607 -0.0888386 1.00065 
-0.110896 -0.0888386 1.00065 
-0.109186 -0.0888386 1.00065 
-0.105453 -0.0885763 0.997695 
-0.103139 -0.0880563 0.991837 
-0.101742 -0.0883155 0.994757 
-0.100337 -0.0885763 0.997695 
-0.0986319 -0.0885763 0.997695 
-0.0969265 -0.0885763 0.997695 
-0.0949409 -0.0883155 0.994757 
-0.0932406 -0.0883155 0.994757 
-0.0915403 -0.0883155 0.994757 
-0.0895763 -0.0880563 0.991837 
-0.087881 -0.0880563 0.991837 
-0.0861857 -0.0880563 0.991837 
-0.0844904 -0.0880563 0.991837 
-0.0827951 -0.0880563 0.991837 
-0.0810998 -0.0880563 0.991837 
-0.0796383 -0.0883155 0.994757 
-0.077938 -0.0883155 0.994757 
-0.0762377 -0.0883155 0.994757 
-0.0745374 -0.0883155 0.994757 
-0.0728371 -0.0883155 0.994757 
-0.0711368 -0.0883155 0.994757 
-0.0692327 -0.0880563 0.991837 
-0.0677362 -0.0883155 0.994757 
-0.0660359 -0.0883155 0.994757 
-0.0643356 -0.0883155 0.994757 
-0.0624515 -0.0880563 0.991837 
-0.135848 -0.0856071 0.983179 
-0.134559 -0.0858569 0.986048 
-0.133263 -0.0861082 0.988934 
-0.131573 -0.0861082 0.988934 
-0.129882 -0.0861082 0.988934 
-0.127818 -0.0858569 0.986048 
-0.126502 -0.0861082 0.988934 
-0.124811 -0.0861082 0.988934 
-0.123482 -0.086361 0.991837 
-0.121787 -0.086361 0.991837 
-0.120092 -0.086361 0.991837 
-0.118745 -0.0866152 0.994757 
-0.11739 -0.086871 0.997695 
-0.115685 -0.086871 0.997695 
-0.113644 -0.0866152 0.994757 
-0.111944 -0.0866152 0.994757 
-0.110244 -0.0866152 0.994757 
-0.108543 -0.0866152 0.994757 
-0.106529 -0.086361 0.991837 
-0.104527 -0.0861082 0.988934 
-0.102837 -0.0861082 0.988934 
-0.101443 -0.086361 0.991837 
-0.100337 -0.086871 0.997695 
-0.0986319 -0.086871 0.997695 
-0.0966412 -0.0866152 0.994757 
-0.0949409 -0.0866152 0.994757 
-0.0932406 -0.0866152 0.994757 
-0.0915403 -0.0866152 0.994757 
-0.0895763 -0.086361 0.991837 
-0.087881 -0.086361 0.991837 
-0.0861857 -0.086361 0.991837 
-0.0844904 -0.086361 0.991837 
-0.0827951 -0.086361 0.991837 
-0.0810998 -0.086361 0.991837 
-0.0794045 -0.086361 0.991837 
-0.0777092 -0.086361 0.991837 
-0.0762377 -0.0866152 0.994757 
-0.0745374 -0.0866152 0.994757 
-0.0726233 -0.086361 0.991837 
-0.0711368 -0.0866152 0.994757 
-0.0692327 -0.086361 0.991837 
-0.0675374 -0.086361 0.991837 
-0.0658421 -0.086361 0.991837 
-0.0641468 -0.086361 0.991837 
-0.0622687 -0.0861082 0.988934 
-0.0605783 -0.0861082 0.988934 
-0.058888 -0.0861082 0.988934 
-0.13713 -0.0836831 0.980326 
-0.135454 -0.0836831 0.980326 
-0.134168 -0.0839266 0.983179 
-0.132487 -0.0839266 0.983179 
-0.131189 -0.0841715 0.986048 
-0.129503 -0.0841715 0.986048 
-0.127818 -0.0841715 0.986048 
-0.126132 -0.0841715 0.986048 
-0.124811 -0.0844179 0.988934 
-0.123121 -0.0844179 0.988934 
-0.121787 -0.0846657 0.991837 
-0.120092 -0.0846657 0.991837 
-0.118396 -0.0846657 0.991837 
-0.117045 -0.084915 0.994757 
-0.115344 -0.084915 0.994757 
-0.11331 -0.0846657 0.991837 
-0.111289 -0.0844179 0.988934 
-0.10992 -0.0846657 0.991837 
-0.108225 -0.0846657 0.991837 
-0.106529 -0.0846657 0.991837 
-0.104834 -0.0846657 0.991837 
-0.102837 -0.0844179 0.988934 
-0.101742 -0.084915 0.994757 
-0.100634 -0.0854179 1.00065 
-0.0986319 -0.0851657 0.997695 
-0.0966412 -0.084915 0.994757 
-0.0949409 -0.084915 0.994757 
-0.0932406 -0.084915 0.994757 
-0.0912716 -0.0846657 0.991837 
-0.0895763 -0.0846657 0.991837 
-0.087881 -0.0846657 0.991837 
-0.0861857 -0.0846657 0.991837 
-0.0844904 -0.0846657 0.991837 
-0.0827951 -0.0846657 0.991837 
-0.0810998 -0.0846657 0.991837 
-0.0794045 -0.0846657 0.991837 
-0.0777092 -0.0846657 0.991837 
-0.0760139 -0.0846657 0.991837 
-0.0743186 -0.0846657 0.991837 
-0.0726233 -0.0846657 0.991837 
-0.070928 -0.0846657 0.991837 
-0.0692327 -0.0846657 0.991837 
-0.0673397 -0.0844179 0.988934 
-0.0658421 -0.0846657 0.991837 
-0.0641468 -0.0846657 0.991837 
-0.0622687 -0.0844179 0.988934 
-0.0605783 -0.0844179 0.988934 
-0.13713 -0.0820075 0.980326 
-0.135062 -0.0817702 0.97749 
-0.133779 -0.0820075 0.980326 
-0.132103 -0.0820075 0.980326 
-0.131189 -0.0824861 0.986048 
-0.129126 -0.0822461 0.983179 
-0.127446 -0.0822461 0.983179 
-0.126132 -0.0824861 0.986048 
-0.124811 -0.0827275 0.988934 
-0.123121 -0.0827275 0.988934 
-0.121787 -0.0829704 0.991837 
-0.120092 -0.0829704 0.991837 
-0.11805 -0.0827275 0.988934 
-0.116701 -0.0829704 0.991837 
-0.115006 -0.0829704 0.991837 
-0.11331 -0.0829704 0.991837 
-0.111289 -0.0827275 0.988934 
-0.109598 -0.0827275 0.988934 
-0.107593 -0.0824861 0.986048 
-0.106529 -0.0829704 0.991837 
-0.104834 -0.0829704 0.991837 
-0.103139 -0.0829704 0.991837 
-0.101742 -0.0832147 0.994757 
-0.100337 -0.0834604 0.997695 
-0.0983415 -0.0832147 0.994757 
-0.0966412 -0.0832147 0.994757 
-0.0949409 -0.0832147 0.994757 
-0.0929669 -0.0829704 0.991837 
-0.0912716 -0.0829704 0.991837 
-0.0895763 -0.0829704 0.991837 
-0.0876238 -0.0827275 0.988934 
-0.0861857 -0.0829704 0.991837 
-0.0844904 -0.0829704 0.991837 
-0.0827951 -0.0829704 0.991837 
-0.0808624 -0.0827275 0.988934 
-0.0794045 -0.0829704 0.991837 
-0.0774817 -0.0827275 0.988934 
-0.0760139 -0.0829704 0.991837 
-0.0743186 -0.0829704 0.991837 
-0.0724107 -0.0827275 0.988934 
-0.0707204 -0.0827275 0.988934 
-0.06903 -0.0827275 0.988934 
-0.0671432 -0.0824861 0.986048 
-0.0654578 -0.0824861 0.986048 
-0.0637724 -0.0824861 0.986048 
-0.13713 -0.0803318 0.980326 
-0.135062 -0.0800994 0.97749 
-0.133779 -0.0803318 0.980326 
-0.131721 -0.0800994 0.97749 
-0.130427 -0.0803318 0.980326 
-0.128752 -0.0803318 0.980326 
-0.127076 -0.0803318 0.980326 
-0.125765 -0.0805656 0.983179 
-0.124447 -0.0808007 0.986048 
-0.122762 -0.0808007 0.986048 
-0.121431 -0.0810372 0.988934 
-0.11974 -0.0810372 0.988934 
-0.117705 -0.0808007 0.986048 
-0.11636 -0.0810372 0.988934 
-0.114669 -0.0810372 0.988934 
-0.112979 -0.0810372 0.988934 
-0.110964 -0.0808007 0.986048 
-0.109278 -0.0808007 0.986048 
-0.107593 -0.0808007 0.986048 
-0.106217 -0.0810372 0.988934 
-0.104527 -0.0810372 0.988934 
-0.103139 -0.0812751 0.991837 
-0.101742 -0.0815144 0.994757 
-0.100042 -0.0815144 0.994757 
-0.0980528 -0.0812751 0.991837 
-0.0966412 -0.0815144 0.994757 
-0.0949409 -0.0815144 0.994757 
-0.0929669 -0.0812751 0.991837 
-0.0912716 -0.0812751 0.991837 
-0.0895763 -0.0812751 0.991837 
-0.0876238 -0.0810372 0.988934 
-0.0861857 -0.0812751 0.991837 
-0.0844904 -0.0812751 0.991837 
-0.0827951 -0.0812751 0.991837 
-0.0810998 -0.0812751 0.991837 
-0.0794045 -0.0812751 0.991837 
-0.0777092 -0.0812751 0.991837 
-0.0760139 -0.0812751 0.991837 
-0.0743186 -0.0812751 0.991837 
-0.0724107 -0.0810372 0.988934 
-0.070514 -0.0808007 0.986048 
-0.0688286 -0.0808007 0.986048 
-0.0669478 -0.0805656 0.983179 
-0.0654578 -0.0808007 0.986048 
-0.0637724 -0.0808007 0.986048 
-0.136733 -0.0784287 0.97749 
-0.135062 -0.0784287 0.97749 
-0.133392 -0.0784287 0.97749 
-0.131721 -0.0784287 0.97749 
-0.130427 -0.0786562 0.980326 
-0.128379 -0.0784287 0.97749 
-0.127076 -0.0786562 0.980326 
-0.1254 -0.0786562 0.980326 
-0.124085 -0.0788851 0.983179 
-0.122762 -0.0791153 0.986048 
-0.121076 -0.0791153 0.986048 
-0.119391 -0.0791153 0.986048 
-0.117363 -0.0788851 0.983179 
-0.11602 -0.0791153 0.986048 
-0.114335 -0.0791153 0.986048 
-0.112649 -0.0791153 0.986048 
-0.110641 -0.0788851 0.983179 
-0.10896 -0.0788851 0.983179 
-0.10728 -0.0788851 0.983179 
-0.105908 -0.0791153 0.986048 
-0.104222 -0.0791153 0.986048 
-0.102537 -0.0791153 0.986048 
-0.101146 -0.0793469 0.988934 
-0.0997481 -0.0795798 0.991837 
-0.0977658 -0.0793469 0.988934 
-0.0963575 -0.0795798 0.991837 
-0.0946622 -0.0795798 0.991837 
-0.0929669 -0.0795798 0.991837 
-0.0912716 -0.0795798 0.991837 
-0.0893141 -0.0793469 0.988934 
-0.0876238 -0.0793469 0.988934 
-0.0859334 -0.0793469 0.988934 
-0.0844904 -0.0795798 0.991837 
-0.0827951 -0.0795798 0.991837 
-0.0808624 -0.0793469 0.988934 
-0.0791721 -0.0793469 0.988934 
-0.0774817 -0.0793469 0.988934 
-0.0757914 -0.0793469 0.988934 
-0.0741011 -0.0793469 0.988934 
-0.0719893 -0.0788851 0.983179 
-0.0703088 -0.0788851 0.983179 
-0.0686283 -0.0788851 0.983179 
-0.136733 -0.0767579 0.97749 
-0.135062 -0.0767579 0.97749 
-0.133392 -0.0767579 0.97749 
-0.131721 -0.0767579 0.97749 
-0.13005 -0.0767579 0.97749 
-0.128379 -0.0767579 0.97749 
-0.127076 -0.0769806 0.980326 
-0.1254 -0.0769806 0.980326 
-0.124085 -0.0772046 0.983179 
-0.122404 -0.0772046 0.983179 
-0.120724 -0.0772046 0.983179 
-0.119391 -0.0774299 0.986048 
-0.117363 -0.0772046 0.983179 
-0.115682 -0.0772046 0.983179 
-0.114002 -0.0772046 0.983179 
-0.112321 -0.0772046 0.983179 
-0.110641 -0.0772046 0.983179 
-0.10896 -0.0772046 0.983179 
-0.10728 -0.0772046 0.983179 
-0.105599 -0.0772046 0.983179 
-0.103919 -0.0772046 0.983179 
-0.102537 -0.0774299 0.986048 
-0.101146 -0.0776565 0.988934 
-0.0997481 -0.0778845 0.991837 
-0.0971968 -0.0772046 0.983179 
-0.0955163 -0.0772046 0.983179 
-0.0946622 -0.0778845 0.991837 
-0.0926948 -0.0776565 0.988934 
-0.0910044 -0.0776565 0.988934 
-0.0890535 -0.0774299 0.986048 
-0.087368 -0.0774299 0.986048 
-0.0856826 -0.0774299 0.986048 
-0.0842431 -0.0776565 0.988934 
-0.0825527 -0.0776565 0.988934 
-0.0808624 -0.0776565 0.988934 
-0.078941 -0.0774299 0.986048 
-0.0772556 -0.0774299 0.986048 
-0.0755702 -0.0774299 0.986048 
-0.0741011 -0.0776565 0.988934 
-0.0719893 -0.0772046 0.983179 
-0.0703088 -0.0772046 0.983179 
-0.0686283 -0.0772046 0.983179 
-0.136733 -0.0750871 0.97749 
-0.135062 -0.0750871 0.97749 
-0.133392 -0.0750871 0.97749 
-0.131341 -0.0748705 0.974671 
-0.129675 -0.0748705 0.974671 
-0.128009 -0.0748705 0.974671 
-0.126343 -0.0748705 0.974671 
-0.125038 -0.0750871 0.97749 
-0.123725 -0.075305 0.980326 
-0.122049 -0.075305 0.980326 
-0.120724 -0.0755241 0.983179 
-0.119043 -0.0755241 0.983179 
-0.117363 -0.0755241 0.983179 
-0.115682 -0.0755241 0.983179 
-0.114002 -0.0755241 0.983179 
-0.112321 -0.0755241 0.983179 
-0.110641 -0.0755241 0.983179 
-0.10896 -0.0755241 0.983179 
-0.106969 -0.075305 0.980326 
-0.105293 -0.075305 0.980326 
-0.103617 -0.075305 0.980326 
-0.101647 -0.0750871 0.97749 
-0.099976 -0.0750871 0.97749 
-0.0988773 -0.0755241 0.983179 
-0.0969148 -0.075305 0.980326 
-0.0955163 -0.0755241 0.983179 
-0.0938358 -0.0755241 0.983179 
-0.0918879 -0.075305 0.980326 
-0.0904748 -0.0755241 0.983179 
-0.0893141 -0.0759662 0.988934 
-0.087368 -0.0757445 0.986048 
-0.0856826 -0.0757445 0.986048 
-0.0842431 -0.0759662 0.988934 
-0.0823118 -0.0757445 0.986048 
-0.0806264 -0.0757445 0.986048 
-0.078941 -0.0757445 0.986048 
-0.0772556 -0.0757445 0.986048 
-0.0736698 -0.0755241 0.983179 
-0.0719893 -0.0755241 0.983179 
-0.0703088 -0.0755241 0.983179 
-0.136339 -0.0732045 0.974671 
-0.134673 -0.0732045 0.974671 
-0.133007 -0.0732045 0.974671 
-0.130963 -0.072994 0.971867 
-0.129302 -0.072994 0.971867 
-0.127641 -0.072994 0.971867 
-0.12598 -0.072994 0.971867 
-0.124677 -0.0732045 0.974671 
-0.122657 -0.072994 0.971867 
-0.120996 -0.072994 0.971867 
-0.120374 -0.0736293 0.980326 
-0.119043 -0.0738436 0.983179 
-0.117363 -0.0738436 0.983179 
-0.115682 -0.0738436 0.983179 
-0.114002 -0.0738436 0.983179 
-0.111995 -0.0736293 0.980326 
-0.11032 -0.0736293 0.980326 
-0.108644 -0.0736293 0.980326 
-0.106659 -0.0734163 0.97749 
-0.104988 -0.0734163 0.97749 
-0.103318 -0.0734163 0.97749 
-0.101354 -0.0732045 0.974671 
-0.0996876 -0.0732045 0.974671 
-0.0985904 -0.0736293 0.980326 
-0.0969148 -0.0736293 0.980326 
-0.0952392 -0.0736293 0.980326 
-0.0935636 -0.0736293 0.980326 
-0.0918879 -0.0736293 0.980326 
-0.0902123 -0.0736293 0.980326 
-0.0887943 -0.0738436 0.983179 
-0.0871138 -0.0738436 0.983179 
-0.0854333 -0.0738436 0.983179 
-0.0839972 -0.0740591 0.986048 
-0.0823118 -0.0740591 0.986048 
-0.0803918 -0.0738436 0.983179 
-0.0782559 -0.0734163 0.97749 
-0.0736698 -0.0738436 0.983179 
-0.0719893 -0.0738436 0.983179 
-0.136339 -0.0715386 0.974671 
-0.134285 -0.0713328 0.971867 
-0.132624 -0.0713328 0.971867 
-0.130963 -0.0713328 0.971867 
-0.129302 -0.0713328 0.971867 
-0.127275 -0.0711282 0.96908 
-0.125618 -0.0711282 0.96908 
-0.123962 -0.0711282 0.96908 
-0.122305 -0.0711282 0.96908 
-0.120304 -0.0709248 0.966308 
-0.120025 -0.0717455 0.97749 
-0.119043 -0.0721631 0.983179 
-0.117022 -0.0719537 0.980326 
-0.115347 -0.0719537 0.980326 
-0.113671 -0.0719537 0.980326 
-0.111995 -0.0719537 0.980326 
-0.11032 -0.0719537 0.980326 
-0.108644 -0.0719537 0.980326 
-0.106046 -0.0713328 0.971867 
-0.104384 -0.0713328 0.971867 
-0.102723 -0.0713328 0.971867 
-0.101062 -0.0713328 0.971867 
-0.0994009 -0.0713328 0.971867 
-0.0983052 -0.0717455 0.97749 
-0.0966344 -0.0717455 0.97749 
-0.0949637 -0.0717455 0.97749 
-0.0932929 -0.0717455 0.97749 
-0.0916221 -0.0717455 0.97749 
-0.0902123 -0.0719537 0.980326 
-0.0885367 -0.0719537 0.980326 
-0.0868611 -0.0719537 0.980326 
-0.0854333 -0.0721631 0.983179 
-0.0837528 -0.0721631 0.983179 
-0.0820723 -0.0721631 0.983179 
-0.136339 -0.0698726 0.974671 
-0.134285 -0.0696716 0.971867 
-0.132624 -0.0696716 0.971867 
-0.130963 -0.0696716 0.971867 
-0.129302 -0.0696716 0.971867 
-0.126549 -0.0690756 0.963552 
-0.125259 -0.0692731 0.966308 
-0.123255 -0.0690756 0.963552 
-0.121956 -0.0692731 0.966308 
-0.119961 -0.0690756 0.963552 
-0.117977 -0.0688791 0.960812 
-0.116667 -0.0690756 0.963552 
-0.11568 -0.0694718 0.96908 
-0.114023 -0.0694718 0.96908 
-0.112046 -0.0692731 0.966308 
-0.110394 -0.0692731 0.966308 
-0.109054 -0.0694718 0.96908 
-0.107707 -0.0696716 0.971867 
-0.106046 -0.0696716 0.971867 
-0.104085 -0.0694718 0.96908 
-0.102429 -0.0694718 0.96908 
-0.101062 -0.0696716 0.971867 
-0.0994009 -0.0696716 0.971867 
-0.0980216 -0.0698726 0.974671 
-0.0966344 -0.0700748 0.97749 
-0.0946897 -0.0698726 0.974671 
-0.0932929 -0.0700748 0.97749 
-0.0916221 -0.0700748 0.97749 
-0.0899513 -0.0700748 0.97749 
-0.135557 -0.0678154 0.96908 
-0.134285 -0.0680105 0.971867 
-0.132244 -0.0678154 0.96908 
-0.130587 -0.0678154 0.96908 
-0.128196 -0.0674286 0.963552 
-0.126549 -0.0674286 0.963552 
-0.125259 -0.0676215 0.966308 
-0.123607 -0.0676215 0.966308 
-0.121956 -0.0676215 0.966308 
-0.119961 -0.0674286 0.963552 
-0.117977 -0.0672369 0.960812 
-0.116335 -0.0672369 0.960812 
-0.11502 -0.0674286 0.963552 
-0.113373 -0.0674286 0.963552 
-0.111726 -0.0674286 0.963552 
-0.110079 -0.0674286 0.963552 
-0.108432 -0.0674286 0.963552 
-0.107398 -0.0678154 0.96908 
-0.105741 -0.0678154 0.96908 
-0.104085 -0.0678154 0.96908 
-0.102429 -0.0678154 0.96908 
-0.100772 -0.0678154 0.96908 
-0.0994009 -0.0680105 0.971867 
-0.0980216 -0.0682067 0.974671 
-0.0963557 -0.0682067 0.974671 
-0.1344 -0.0655946 0.960812 
-0.133136 -0.0657817 0.963552 
-0.13149 -0.0657817 0.963552 
-0.129473 -0.0655946 0.960812 
-0.127469 -0.0654086 0.958088 
-0.125831 -0.0654086 0.958088 
-0.124547 -0.0655946 0.960812 
-0.123255 -0.0657817 0.963552 
-0.121608 -0.0657817 0.963552 
-0.11962 -0.0655946 0.960812 
-0.117977 -0.0655946 0.960812 
-0.116005 -0.0654086 0.958088 
-0.114693 -0.0655946 0.960812 
-0.113051 -0.0655946 0.960812 
-0.111408 -0.0655946 0.960812 
-0.109766 -0.0655946 0.960812 
-0.108124 -0.0655946 0.960812 
-0.107398 -0.066159 0.96908 
-0.105439 -0.0659698 0.966308 
-0.103787 -0.0659698 0.966308 
-0.102136 -0.0659698 0.966308 
-0.1344 -0.0639523 0.960812 
-0.132758 -0.0639523 0.960812 
-0.131116 -0.0639523 0.960812 
-0.129106 -0.063771 0.958088 
-0.127108 -0.0635907 0.955379 
-0.125475 -0.0635907 0.955379 
-0.124193 -0.063771 0.958088 
-0.122556 -0.063771 0.958088 
-0.121262 -0.0639523 0.960812 
-0.119281 -0.063771 0.958088 
-0.117643 -0.063771 0.958088 
-0.115677 -0.0635907 0.955379 
-0.114368 -0.063771 0.958088 
-0.113051 -0.0639523 0.960812 
-0.111408 -0.0639523 0.960812 
-0.109766 -0.0639523 0.960812 
-0.108124 -0.0639523 0.960812 
-0.134019 -0.0621334 0.958088 
-0.132758 -0.0623101 0.960812 
-0.131116 -0.0623101 0.960812 
-0.128741 -0.0619577 0.955379 
-0.12675 -0.061783 0.952685 
-0.125121 -0.061783 0.952685 
-0.123493 -0.061783 0.952685 
-0.122209 -0.0619577 0.955379 
-0.120918 -0.0621334 0.958088 
-0.119281 -0.0621334 0.958088 
-0.11731 -0.0619577 0.955379 
-0.115351 -0.061783 0.952685 
-0.114044 -0.0619577 0.955379 
-0.134019 -0.0604958 0.958088 
-0.132381 -0.0604958 0.958088 
-0.130744 -0.0604958 0.958088 
-0.128741 -0.0603247 0.955379 
-0.12675 -0.0601546 0.952685 
-0.125121 -0.0601546 0.952685 
-0.123493 -0.0601546 0.952685 
-0.121865 -0.0601546 0.952685 
-0.120236 -0.0601546 0.952685 
-0.13364 -0.0586917 0.955379 
-0.131635 -0.0585262 0.952685 
