ply
format ascii 1.0
comment VCGLIB generated
element vertex 635
property float x
property float y
property float z
element face 0
property list uchar int vertex_indices
end_header
-0.138668 0.0256434 0.934246 
-0.138668 0.0272402 0.934246 
-0.140265 0.0288371 0.934246 
-0.138668 0.0288371 0.934246 
-0.137071 0.0288371 0.934246 
-0.135475 0.0288371 0.934246 
-0.133878 0.0288371 0.934246 
-0.140265 0.0304339 0.934246 
-0.138668 0.0304339 0.934246 
-0.137071 0.0304339 0.934246 
-0.135475 0.0304339 0.934246 
-0.118236 0.0305183 0.936836 
-0.116635 0.0305183 0.936836 
-0.140265 0.0320308 0.934246 
-0.138668 0.0320308 0.934246 
-0.137071 0.0320308 0.934246 
-0.135475 0.0320308 0.934246 
-0.133878 0.0320308 0.934246 
-0.126242 0.0321196 0.936836 
-0.12304 0.0321196 0.936836 
-0.119506 0.0320308 0.934246 
-0.117909 0.0320308 0.934246 
-0.116312 0.0320308 0.934246 
-0.143857 0.0337209 0.936836 
-0.141862 0.0336277 0.934246 
-0.140265 0.0336277 0.934246 
-0.138668 0.0336277 0.934246 
-0.137451 0.0337209 0.936836 
-0.13585 0.0337209 0.936836 
-0.134249 0.0337209 0.936836 
-0.132648 0.0337209 0.936836 
-0.126242 0.0337209 0.936836 
-0.124641 0.0337209 0.936836 
-0.119837 0.0337209 0.936836 
-0.117909 0.0336277 0.934246 
-0.147059 0.0353222 0.936836 
-0.145458 0.0353222 0.936836 
-0.143459 0.0352245 0.934246 
-0.141862 0.0352245 0.934246 
-0.140265 0.0352245 0.934246 
-0.138668 0.0352245 0.934246 
-0.137451 0.0353222 0.936836 
-0.135475 0.0352245 0.934246 
-0.133878 0.0352245 0.934246 
-0.132648 0.0353222 0.936836 
-0.129445 0.0353222 0.936836 
-0.126242 0.0353222 0.936836 
-0.124641 0.0353222 0.936836 
-0.12304 0.0353222 0.936836 
-0.121439 0.0353222 0.936836 
-0.119837 0.0353222 0.936836 
-0.117909 0.0352245 0.934246 
-0.150262 0.0369235 0.936836 
-0.14866 0.0369235 0.936836 
-0.147059 0.0369235 0.936836 
-0.145458 0.0369235 0.936836 
-0.143857 0.0369235 0.936836 
-0.141862 0.0368214 0.934246 
-0.140265 0.0368214 0.934246 
-0.138668 0.0368214 0.934246 
-0.137451 0.0369235 0.936836 
-0.135475 0.0368214 0.934246 
-0.133878 0.0368214 0.934246 
-0.132281 0.0368214 0.934246 
-0.131046 0.0369235 0.936836 
-0.129445 0.0369235 0.936836 
-0.127844 0.0369235 0.936836 
-0.125893 0.0368214 0.934246 
-0.124297 0.0368214 0.934246 
-0.1227 0.0368214 0.934246 
-0.121439 0.0369235 0.936836 
-0.119506 0.0368214 0.934246 
-0.117584 0.0367199 0.931669 
-0.150262 0.0385248 0.936836 
-0.14866 0.0385248 0.936836 
-0.147059 0.0385248 0.936836 
-0.145458 0.0385248 0.936836 
-0.143857 0.0385248 0.936836 
-0.142255 0.0385248 0.936836 
-0.140265 0.0384182 0.934246 
-0.138668 0.0384182 0.934246 
-0.137451 0.0385248 0.936836 
-0.135475 0.0384182 0.934246 
-0.133878 0.0384182 0.934246 
-0.132281 0.0384182 0.934246 
-0.130684 0.0384182 0.934246 
-0.129087 0.0384182 0.934246 
-0.127844 0.0385248 0.936836 
-0.125893 0.0384182 0.934246 
-0.123954 0.0383123 0.931669 
-0.122361 0.0383123 0.931669 
-0.120769 0.0383123 0.931669 
-0.119176 0.0383123 0.931669 
-0.117261 0.038207 0.929108 
-0.151863 0.0401261 0.936836 
-0.150262 0.0401261 0.936836 
-0.14866 0.0401261 0.936836 
-0.147059 0.0401261 0.936836 
-0.145458 0.0401261 0.936836 
-0.143857 0.0401261 0.936836 
-0.141862 0.0400151 0.934246 
-0.140265 0.0400151 0.934246 
-0.138668 0.0400151 0.934246 
-0.137451 0.0401261 0.936836 
-0.135475 0.0400151 0.934246 
-0.133878 0.0400151 0.934246 
-0.132281 0.0400151 0.934246 
-0.130684 0.0400151 0.934246 
-0.129087 0.0400151 0.934246 
-0.12749 0.0400151 0.934246 
-0.125893 0.0400151 0.934246 
-0.123613 0.039795 0.929108 
-0.122025 0.039795 0.929108 
-0.120769 0.0399048 0.931669 
-0.118849 0.039795 0.929108 
-0.117261 0.039795 0.929108 
-0.151863 0.0417273 0.936836 
-0.150262 0.0417273 0.936836 
-0.14866 0.0417273 0.936836 
-0.147059 0.0417273 0.936836 
-0.145458 0.0417273 0.936836 
-0.143459 0.041612 0.934246 
-0.141862 0.041612 0.934246 
-0.140265 0.041612 0.934246 
-0.138668 0.041612 0.934246 
-0.137071 0.041612 0.934246 
-0.135475 0.041612 0.934246 
-0.133878 0.041612 0.934246 
-0.131916 0.0414972 0.931669 
-0.130684 0.041612 0.934246 
-0.129087 0.041612 0.934246 
-0.12749 0.041612 0.934246 
-0.125893 0.041612 0.934246 
-0.123613 0.0413831 0.929108 
-0.122025 0.0413831 0.929108 
-0.120437 0.0413831 0.929108 
-0.118849 0.0413831 0.929108 
-0.117261 0.0413831 0.929108 
-0.151443 0.0432088 0.934246 
-0.150262 0.0433286 0.936836 
-0.14866 0.0433286 0.936836 
-0.146653 0.0432088 0.934246 
-0.145056 0.0432088 0.934246 
-0.143459 0.0432088 0.934246 
-0.141862 0.0432088 0.934246 
-0.139878 0.0430897 0.931669 
-0.138286 0.0430897 0.931669 
-0.137071 0.0432088 0.934246 
-0.135101 0.0430897 0.931669 
-0.133509 0.0430897 0.931669 
-0.131916 0.0430897 0.931669 
-0.130684 0.0432088 0.934246 
-0.129087 0.0432088 0.934246 
-0.127844 0.0433286 0.936836 
-0.125893 0.0432088 0.934246 
-0.123613 0.0429712 0.929108 
-0.122025 0.0429712 0.929108 
-0.120437 0.0429712 0.929108 
-0.118849 0.0429712 0.929108 
-0.117261 0.0429712 0.929108 
-0.151443 0.0448057 0.934246 
-0.149846 0.0448057 0.934246 
-0.14866 0.0449299 0.936836 
-0.146653 0.0448057 0.934246 
-0.145458 0.0449299 0.936836 
-0.143459 0.0448057 0.934246 
-0.141862 0.0448057 0.934246 
-0.139878 0.0446821 0.931669 
-0.138286 0.0446821 0.931669 
-0.137071 0.0448057 0.934246 
-0.135101 0.0446821 0.931669 
-0.133509 0.0446821 0.931669 
-0.131916 0.0446821 0.931669 
-0.130684 0.0448057 0.934246 
-0.128731 0.0446821 0.931669 
-0.127139 0.0446821 0.931669 
-0.125201 0.0445593 0.929108 
-0.123274 0.0444371 0.92656 
-0.12169 0.0444371 0.92656 
-0.120106 0.0444371 0.92656 
-0.118523 0.0444371 0.92656 
-0.116939 0.0444371 0.92656 
-0.152618 0.0462746 0.931669 
-0.151443 0.0464026 0.934246 
-0.149846 0.0464026 0.934246 
-0.148249 0.0464026 0.934246 
-0.146653 0.0464026 0.934246 
-0.145056 0.0464026 0.934246 
-0.143459 0.0464026 0.934246 
-0.141471 0.0462746 0.931669 
-0.139878 0.0462746 0.931669 
-0.138286 0.0462746 0.931669 
-0.136693 0.0462746 0.931669 
-0.135101 0.0462746 0.931669 
-0.133509 0.0462746 0.931669 
-0.131553 0.0461474 0.929108 
-0.129965 0.0461474 0.929108 
-0.128731 0.0462746 0.931669 
-0.127139 0.0462746 0.931669 
-0.125201 0.0461474 0.929108 
-0.123274 0.0460208 0.92656 
-0.12169 0.0460208 0.92656 
-0.120106 0.0460208 0.92656 
-0.118523 0.0460208 0.92656 
-0.152618 0.0478671 0.931669 
-0.151443 0.0479994 0.934246 
-0.149846 0.0479994 0.934246 
-0.14866 0.0481325 0.936836 
-0.147059 0.0481325 0.936836 
-0.145862 0.0482663 0.939441 
-0.14267 0.0477354 0.929108 
-0.141082 0.0477354 0.929108 
-0.139494 0.0477354 0.929108 
-0.137906 0.0477354 0.929108 
-0.136318 0.0477354 0.929108 
-0.134729 0.0477354 0.929108 
-0.133141 0.0477354 0.929108 
-0.131553 0.0477354 0.929108 
-0.129965 0.0477354 0.929108 
-0.128731 0.0478671 0.931669 
-0.126789 0.0477354 0.929108 
-0.125201 0.0477354 0.929108 
-0.123274 0.0476045 0.92656 
-0.121357 0.0474743 0.924026 
-0.120106 0.0476045 0.92656 
-0.118199 0.0474743 0.924026 
-0.152618 0.0494595 0.931669 
-0.151443 0.0495963 0.934246 
-0.149846 0.0495963 0.934246 
-0.14866 0.0497338 0.936836 
-0.147059 0.0497338 0.936836 
-0.145458 0.0497338 0.936836 
-0.14267 0.0493235 0.929108 
-0.141082 0.0493235 0.929108 
-0.139494 0.0493235 0.929108 
-0.137906 0.0493235 0.929108 
-0.136318 0.0493235 0.929108 
-0.134729 0.0493235 0.929108 
-0.133141 0.0493235 0.929108 
-0.131916 0.0494595 0.931669 
-0.130324 0.0494595 0.931669 
-0.128731 0.0494595 0.931669 
-0.126789 0.0493235 0.929108 
-0.125201 0.0493235 0.929108 
-0.123274 0.0491883 0.92656 
-0.121357 0.0490537 0.924026 
-0.119778 0.0490537 0.924026 
-0.118199 0.0490537 0.924026 
-0.152618 0.051052 0.931669 
-0.151026 0.051052 0.931669 
-0.149846 0.0511931 0.934246 
-0.148249 0.0511931 0.934246 
-0.147059 0.0513351 0.936836 
-0.145056 0.0511931 0.934246 
-0.142279 0.050772 0.92656 
-0.140695 0.050772 0.92656 
-0.139111 0.050772 0.92656 
-0.137527 0.050772 0.92656 
-0.135944 0.050772 0.92656 
-0.134729 0.0509116 0.929108 
-0.133141 0.0509116 0.929108 
-0.131916 0.051052 0.931669 
-0.130324 0.051052 0.931669 
-0.128731 0.051052 0.931669 
-0.126789 0.0509116 0.929108 
-0.125201 0.0509116 0.929108 
-0.123274 0.050772 0.92656 
-0.121357 0.0506331 0.924026 
-0.119778 0.0506331 0.924026 
-0.117876 0.050495 0.921506 
-0.153365 0.0523557 0.92656 
-0.152198 0.0524997 0.929108 
-0.151026 0.0526444 0.931669 
-0.149433 0.0526444 0.931669 
-0.147434 0.0524997 0.929108 
-0.146653 0.05279 0.934246 
-0.144258 0.0524997 0.929108 
-0.142279 0.0523557 0.92656 
-0.140695 0.0523557 0.92656 
-0.139111 0.0523557 0.92656 
-0.137151 0.0522125 0.924026 
-0.135572 0.0522125 0.924026 
-0.13436 0.0523557 0.92656 
-0.132776 0.0523557 0.92656 
-0.131916 0.0526444 0.931669 
-0.130324 0.0526444 0.931669 
-0.128377 0.0524997 0.929108 
-0.126789 0.0524997 0.929108 
-0.124858 0.0523557 0.92656 
-0.122937 0.0522125 0.924026 
-0.121357 0.0522125 0.924026 
-0.119451 0.0520701 0.921506 
-0.117876 0.0520701 0.921506 
-0.152528 0.0536452 0.921506 
-0.151366 0.0537919 0.924026 
-0.15061 0.0540878 0.929108 
-0.149433 0.0542369 0.931669 
-0.147434 0.0540878 0.929108 
-0.145446 0.0539394 0.92656 
-0.143862 0.0539394 0.92656 
-0.142279 0.0539394 0.92656 
-0.140695 0.0539394 0.92656 
-0.139111 0.0539394 0.92656 
-0.136777 0.0536452 0.921506 
-0.135202 0.0536452 0.921506 
-0.133993 0.0537919 0.924026 
-0.132413 0.0537919 0.924026 
-0.131553 0.0540878 0.929108 
-0.130324 0.0542369 0.931669 
-0.128377 0.0540878 0.929108 
-0.126441 0.0539394 0.92656 
-0.124858 0.0539394 0.92656 
-0.123274 0.0539394 0.92656 
-0.121357 0.0537919 0.924026 
-0.119778 0.0537919 0.924026 
-0.117876 0.0536452 0.921506 
-0.152528 0.0552203 0.921506 
-0.151366 0.0553713 0.924026 
-0.15061 0.0556758 0.929108 
-0.149433 0.0558293 0.931669 
-0.147434 0.0556758 0.929108 
-0.145846 0.0556758 0.929108 
-0.144258 0.0556758 0.929108 
-0.143063 0.0558293 0.931669 
-0.140695 0.0555231 0.92656 
-0.139494 0.0556758 0.929108 
-0.136777 0.0552203 0.921506 
-0.135202 0.0552203 0.921506 
-0.133627 0.0552203 0.921506 
-0.132052 0.0552203 0.921506 
-0.131193 0.0555231 0.92656 
-0.129965 0.0556758 0.929108 
-0.127327 0.0552203 0.921506 
-0.125752 0.0552203 0.921506 
-0.124516 0.0553713 0.924026 
-0.122937 0.0553713 0.924026 
-0.121357 0.0553713 0.924026 
-0.119451 0.0552203 0.921506 
-0.117876 0.0552203 0.921506 
-0.152528 0.0567954 0.921506 
-0.150953 0.0567954 0.921506 
-0.150197 0.0571069 0.92656 
-0.149022 0.0572639 0.929108 
-0.14703 0.0571069 0.92656 
-0.145048 0.0569507 0.924026 
-0.143862 0.0571069 0.92656 
-0.143063 0.0574218 0.931669 
-0.14031 0.0569507 0.924026 
-0.138731 0.0569507 0.924026 
-0.136405 0.0566409 0.918999 
-0.134834 0.0566409 0.918999 
-0.133264 0.0566409 0.918999 
-0.132052 0.0567954 0.921506 
-0.130477 0.0567954 0.921506 
-0.128902 0.0567954 0.921506 
-0.12698 0.0566409 0.918999 
-0.126096 0.0569507 0.924026 
-0.124516 0.0569507 0.924026 
-0.122937 0.0569507 0.924026 
-0.121357 0.0569507 0.924026 
-0.119126 0.0566409 0.918999 
-0.152528 0.0583705 0.921506 
-0.150953 0.0583705 0.921506 
-0.150197 0.0586906 0.92656 
-0.148614 0.0586906 0.92656 
-0.14703 0.0586906 0.92656 
-0.145048 0.0585301 0.924026 
-0.143862 0.0586906 0.92656 
-0.14189 0.0585301 0.924026 
-0.14031 0.0585301 0.924026 
-0.138731 0.0585301 0.924026 
-0.136777 0.0583705 0.921506 
-0.134834 0.0582117 0.918999 
-0.133264 0.0582117 0.918999 
-0.132052 0.0583705 0.921506 
-0.130122 0.0582117 0.918999 
-0.128902 0.0583705 0.921506 
-0.12698 0.0582117 0.918999 
-0.125752 0.0583705 0.921506 
-0.124177 0.0583705 0.921506 
-0.122602 0.0583705 0.921506 
-0.120697 0.0582117 0.918999 
-0.119126 0.0582117 0.918999 
-0.153684 0.0597825 0.918999 
-0.152113 0.0597825 0.918999 
-0.150542 0.0597825 0.918999 
-0.149378 0.0599455 0.921506 
-0.148207 0.0601095 0.924026 
-0.146628 0.0601095 0.924026 
-0.145048 0.0601095 0.924026 
-0.143469 0.0601095 0.924026 
-0.14189 0.0601095 0.924026 
-0.14031 0.0601095 0.924026 
-0.138731 0.0601095 0.924026 
-0.136405 0.0597825 0.918999 
-0.134469 0.0596203 0.916506 
-0.133264 0.0597825 0.918999 
-0.131693 0.0597825 0.918999 
-0.130122 0.0597825 0.918999 
-0.128551 0.0597825 0.918999 
-0.127327 0.0599455 0.921506 
-0.12541 0.0597825 0.918999 
-0.124177 0.0599455 0.921506 
-0.122602 0.0599455 0.921506 
-0.120697 0.0597825 0.918999 
-0.118803 0.0596203 0.916506 
-0.153684 0.0613533 0.918999 
-0.152113 0.0613533 0.918999 
-0.150542 0.0613533 0.918999 
-0.149378 0.0615206 0.921506 
-0.147803 0.0615206 0.921506 
-0.146628 0.0616889 0.924026 
-0.145048 0.0616889 0.924026 
-0.143469 0.0616889 0.924026 
-0.14189 0.0616889 0.924026 
-0.139927 0.0615206 0.921506 
-0.137976 0.0613533 0.918999 
-0.136035 0.0611869 0.916506 
-0.134469 0.0611869 0.916506 
-0.132902 0.0611869 0.916506 
-0.131336 0.0611869 0.916506 
-0.130122 0.0613533 0.918999 
-0.128203 0.0611869 0.916506 
-0.126636 0.0611869 0.916506 
-0.125069 0.0611869 0.916506 
-0.123503 0.0611869 0.916506 
-0.122268 0.0613533 0.918999 
-0.12037 0.0611869 0.916506 
-0.118482 0.0610214 0.914027 
-0.153267 0.0627534 0.916506 
-0.151701 0.0627534 0.916506 
-0.150542 0.0629241 0.918999 
-0.148972 0.0629241 0.918999 
-0.147401 0.0629241 0.918999 
-0.14583 0.0629241 0.918999 
-0.144653 0.0630957 0.921506 
-0.142688 0.0629241 0.918999 
-0.141118 0.0629241 0.918999 
-0.139547 0.0629241 0.918999 
-0.137602 0.0627534 0.916506 
-0.136035 0.0627534 0.916506 
-0.134469 0.0627534 0.916506 
-0.132902 0.0627534 0.916506 
-0.131336 0.0627534 0.916506 
-0.129769 0.0627534 0.916506 
-0.128551 0.0629241 0.918999 
-0.126636 0.0627534 0.916506 
-0.125069 0.0627534 0.916506 
-0.123503 0.0627534 0.916506 
-0.121936 0.0627534 0.916506 
-0.11972 0.0624148 0.911561 
-0.118162 0.0624148 0.911561 
-0.153267 0.06432 0.916506 
-0.151701 0.06432 0.916506 
-0.150542 0.0644949 0.918999 
-0.148972 0.0644949 0.918999 
-0.147001 0.06432 0.916506 
-0.145435 0.06432 0.916506 
-0.144259 0.0644949 0.918999 
-0.142301 0.06432 0.916506 
-0.140735 0.06432 0.916506 
-0.139168 0.06432 0.916506 
-0.13723 0.064146 0.914027 
-0.136035 0.06432 0.916506 
-0.134469 0.06432 0.916506 
-0.132902 0.06432 0.916506 
-0.131336 0.06432 0.916506 
-0.129769 0.06432 0.916506 
-0.128551 0.0644949 0.918999 
-0.126636 0.06432 0.916506 
-0.125069 0.06432 0.916506 
-0.123503 0.06432 0.916506 
-0.121278 0.0639729 0.911561 
-0.119398 0.0638008 0.909108 
-0.117844 0.0638008 0.909108 
-0.153267 0.0658865 0.916506 
-0.151701 0.0658865 0.916506 
-0.150542 0.0660657 0.918999 
-0.148972 0.0660657 0.918999 
-0.147401 0.0660657 0.918999 
-0.145435 0.0658865 0.916506 
-0.143868 0.0658865 0.916506 
-0.141916 0.0657083 0.914027 
-0.140354 0.0657083 0.914027 
-0.138417 0.065531 0.911561 
-0.137602 0.0658865 0.916506 
-0.136035 0.0658865 0.916506 
-0.134469 0.0658865 0.916506 
-0.132902 0.0658865 0.916506 
-0.131336 0.0658865 0.916506 
-0.129769 0.0658865 0.916506 
-0.128203 0.0658865 0.916506 
-0.126636 0.0658865 0.916506 
-0.125069 0.0658865 0.916506 
-0.123169 0.0657083 0.914027 
-0.120952 0.0653547 0.909108 
-0.155255 0.0676365 0.918999 
-0.153267 0.067453 0.916506 
-0.151701 0.067453 0.916506 
-0.150542 0.0676365 0.918999 
-0.148568 0.067453 0.916506 
-0.146603 0.0672706 0.914027 
-0.145435 0.067453 0.916506 
-0.143868 0.067453 0.916506 
-0.141916 0.0672706 0.914027 
-0.140354 0.0672706 0.914027 
-0.138417 0.0670891 0.911561 
-0.136859 0.0670891 0.911561 
-0.136035 0.067453 0.916506 
-0.134469 0.067453 0.916506 
-0.132902 0.067453 0.916506 
-0.13098 0.0672706 0.914027 
-0.129769 0.067453 0.916506 
-0.128203 0.067453 0.916506 
-0.125953 0.0670891 0.911561 
-0.12406 0.0669086 0.909108 
-0.122506 0.0669086 0.909108 
-0.155255 0.0692073 0.918999 
-0.153267 0.0690196 0.916506 
-0.151701 0.0690196 0.916506 
-0.150134 0.0690196 0.916506 
-0.148568 0.0690196 0.916506 
-0.146603 0.0688329 0.914027 
-0.145435 0.0690196 0.916506 
-0.143868 0.0690196 0.916506 
-0.142301 0.0690196 0.916506 
-0.140354 0.0688329 0.914027 
-0.138417 0.0686472 0.911561 
-0.13723 0.0688329 0.914027 
-0.135667 0.0688329 0.914027 
-0.134105 0.0688329 0.914027 
-0.132543 0.0688329 0.914027 
-0.130627 0.0686472 0.911561 
-0.129069 0.0686472 0.911561 
-0.127168 0.0684625 0.909108 
-0.155255 0.0707781 0.918999 
-0.153267 0.0705861 0.916506 
-0.151701 0.0705861 0.916506 
-0.150542 0.0707781 0.918999 
-0.148568 0.0705861 0.916506 
-0.146603 0.0703952 0.914027 
-0.145041 0.0703952 0.914027 
-0.143479 0.0703952 0.914027 
-0.141916 0.0703952 0.914027 
-0.139976 0.0702053 0.911561 
-0.138045 0.0700164 0.909108 
-0.13723 0.0703952 0.914027 
-0.135301 0.0702053 0.911561 
-0.134105 0.0703952 0.914027 
-0.131829 0.0700164 0.909108 
-0.130627 0.0702053 0.911561 
-0.128722 0.0700164 0.909108 
-0.127168 0.0700164 0.909108 
-0.125614 0.0700164 0.909108 
-0.155138 0.0715703 0.909108 
-0.154834 0.0721527 0.916506 
-0.153267 0.0721527 0.916506 
-0.151701 0.0721527 0.916506 
-0.150134 0.0721527 0.916506 
-0.148166 0.0719575 0.914027 
-0.146208 0.0717633 0.911561 
-0.145041 0.0719575 0.914027 
-0.143479 0.0719575 0.914027 
-0.141534 0.0717633 0.911561 
-0.139599 0.0715703 0.909108 
-0.138417 0.0717633 0.911561 
-0.136859 0.0717633 0.911561 
-0.135301 0.0717633 0.911561 
-0.134105 0.0719575 0.914027 
-0.131829 0.0715703 0.909108 
-0.130276 0.0715703 0.909108 
-0.128722 0.0715703 0.909108 
-0.127168 0.0715703 0.909108 
-0.125614 0.0715703 0.909108 
-0.155138 0.0731242 0.909108 
-0.154415 0.0735198 0.914027 
-0.152853 0.0735198 0.914027 
-0.151701 0.0737192 0.916506 
-0.149728 0.0735198 0.914027 
-0.147766 0.0733214 0.911561 
-0.146208 0.0733214 0.911561 
-0.14465 0.0733214 0.911561 
-0.143092 0.0733214 0.911561 
-0.141534 0.0733214 0.911561 
-0.139599 0.0731242 0.909108 
-0.138045 0.0731242 0.909108 
-0.136859 0.0733214 0.911561 
-0.135301 0.0733214 0.911561 
-0.133743 0.0733214 0.911561 
-0.131829 0.0731242 0.909108 
-0.130276 0.0731242 0.909108 
-0.127168 0.0731242 0.909108 
-0.155138 0.074678 0.909108 
-0.154834 0.0752857 0.916506 
-0.153684 0.0754905 0.918999 
-0.151701 0.0752857 0.916506 
-0.149728 0.0750821 0.914027 
-0.148166 0.0750821 0.914027 
-0.146208 0.0748795 0.911561 
-0.145041 0.0750821 0.914027 
-0.143479 0.0750821 0.914027 
-0.141534 0.0748795 0.911561 
-0.139599 0.074678 0.909108 
-0.138045 0.074678 0.909108 
-0.136491 0.074678 0.909108 
-0.134937 0.074678 0.909108 
-0.155556 0.0764376 0.911561 
-0.154834 0.0768523 0.916506 
-0.153267 0.0768523 0.916506 
-0.15129 0.0766444 0.914027 
-0.149728 0.0766444 0.914027 
-0.147766 0.0764376 0.911561 
-0.146208 0.0764376 0.911561 
-0.14465 0.0764376 0.911561 
-0.143092 0.0764376 0.911561 
-0.155977 0.0782067 0.914027 
-0.154834 0.0784188 0.916506 
-0.153267 0.0784188 0.916506 
-0.15129 0.0782067 0.914027 
-0.149728 0.0782067 0.914027 
-0.148166 0.0782067 0.914027 
-0.146208 0.0779957 0.911561 
-0.14465 0.0779957 0.911561 
-0.143092 0.0779957 0.911561 
-0.154834 0.0799854 0.916506 
-0.153267 0.0799854 0.916506 
-0.15129 0.079769 0.914027 
-0.149324 0.0795538 0.911561 
-0.147766 0.0795538 0.911561 
-0.146208 0.0795538 0.911561 
-0.154415 0.0813313 0.914027 
-0.153267 0.0815519 0.916506 
-0.15129 0.0813313 0.914027 
-0.149324 0.0811119 0.911561 
-0.147766 0.0811119 0.911561 
