ply
format ascii 1.0
comment VCGLIB generated
element vertex 1612
property float x
property float y
property float z
element face 0
property list uchar int vertex_indices
end_header
-0.253119 0.078981 0.887614 
-0.250943 0.0787741 0.885289 
-0.248778 0.0785682 0.882975 
-0.248568 0.078981 0.887614 
-0.247701 0.0791891 0.889952 
-0.247484 0.0796084 0.894665 
-0.245955 0.0796084 0.894665 
-0.244426 0.0796084 0.894665 
-0.242896 0.0796084 0.894665 
-0.239205 0.0793982 0.892302 
-0.237679 0.0793982 0.892302 
-0.235532 0.0791891 0.889952 
-0.234011 0.0791891 0.889952 
-0.23249 0.0791891 0.889952 
-0.232192 0.0796084 0.894665 
-0.230663 0.0796084 0.894665 
-0.229134 0.0796084 0.894665 
-0.227003 0.0793982 0.892302 
-0.225478 0.0793982 0.892302 
-0.223953 0.0793982 0.892302 
-0.222428 0.0793982 0.892302 
-0.221488 0.0796084 0.894665 
-0.219958 0.0796084 0.894665 
-0.218429 0.0796084 0.894665 
-0.2169 0.0796084 0.894665 
-0.215371 0.0796084 0.894665 
-0.213841 0.0796084 0.894665 
-0.212312 0.0796084 0.894665 
-0.211343 0.0798198 0.89704 
-0.209809 0.0798198 0.89704 
-0.207725 0.0796084 0.894665 
-0.206195 0.0796084 0.894665 
-0.204666 0.0796084 0.894665 
-0.202601 0.0793982 0.892302 
-0.201608 0.0796084 0.894665 
-0.199025 0.0791891 0.889952 
-0.198025 0.0793982 0.892302 
-0.195467 0.078981 0.887614 
-0.19395 0.078981 0.887614 
-0.197093 0.0808936 0.909108 
-0.195539 0.0808936 0.909108 
-0.194509 0.0811119 0.911561 
-0.193472 0.0813313 0.914027 
-0.19191 0.0813313 0.914027 
-0.190348 0.0813313 0.914027 
-0.188276 0.0811119 0.911561 
-0.186718 0.0811119 0.911561 
-0.18516 0.0811119 0.911561 
-0.183108 0.0808936 0.909108 
-0.181067 0.0806766 0.906669 
-0.179517 0.0806766 0.906669 
-0.178446 0.0808936 0.909108 
-0.176892 0.0808936 0.909108 
-0.175339 0.0808936 0.909108 
-0.173318 0.0806766 0.906669 
-0.171769 0.0806766 0.906669 
-0.170677 0.0808936 0.909108 
-0.168669 0.0806766 0.906669 
-0.167569 0.0808936 0.909108 
-0.166015 0.0808936 0.909108 
-0.16402 0.0806766 0.906669 
-0.162907 0.0808936 0.909108 
-0.161353 0.0808936 0.909108 
-0.1598 0.0808936 0.909108 
-0.158246 0.0808936 0.909108 
-0.156692 0.0808936 0.909108 
-0.155138 0.0808936 0.909108 
-0.154415 0.0813313 0.914027 
-0.153267 0.0815519 0.916506 
-0.15129 0.0813313 0.914027 
-0.149324 0.0811119 0.911561 
-0.147766 0.0811119 0.911561 
-0.145814 0.0808936 0.909108 
-0.144261 0.0808936 0.909108 
-0.142707 0.0808936 0.909108 
-0.140774 0.0806766 0.906669 
-0.138852 0.0804607 0.904242 
-0.137306 0.0804607 0.904242 
-0.135398 0.0802459 0.901829 
-0.134215 0.0804607 0.904242 
-0.132669 0.0804607 0.904242 
-0.131124 0.0804607 0.904242 
-0.129578 0.0804607 0.904242 
-0.127691 0.0802459 0.901829 
-0.126487 0.0804607 0.904242 
-0.124941 0.0804607 0.904242 
-0.123396 0.0804607 0.904242 
-0.121525 0.0802459 0.901829 
-0.119664 0.0800323 0.899428 
-0.117813 0.0798198 0.89704 
-0.115972 0.0796084 0.894665 
-0.114443 0.0796084 0.894665 
-0.112616 0.0793982 0.892302 
-0.110798 0.0791891 0.889952 
-0.109277 0.0791891 0.889952 
-0.107755 0.0791891 0.889952 
-0.106234 0.0791891 0.889952 
-0.104713 0.0791891 0.889952 
-0.103192 0.0791891 0.889952 
-0.101671 0.0791891 0.889952 
-0.10015 0.0791891 0.889952 
-0.0986285 0.0791891 0.889952 
-0.0968523 0.078981 0.887614 
-0.0953351 0.078981 0.887614 
-0.0938179 0.078981 0.887614 
-0.0920589 0.0787741 0.885289 
-0.0903091 0.0785682 0.882975 
-0.0887999 0.0785682 0.882975 
-0.0870632 0.0783635 0.880674 
-0.0855579 0.0783635 0.880674 
-0.0838341 0.0781597 0.878384 
-0.0825473 0.0783635 0.880674 
-0.081042 0.0783635 0.880674 
-0.0795367 0.0783635 0.880674 
-0.0780314 0.0783635 0.880674 
-0.0765261 0.0783635 0.880674 
-0.0750208 0.0783635 0.880674 
-0.0733244 0.0781597 0.878384 
-0.071823 0.0781597 0.878384 
-0.0703216 0.0781597 0.878384 
-0.0686418 0.0779571 0.876107 
-0.0669707 0.0777555 0.873841 
-0.0656468 0.0779571 0.876107 
-0.0641494 0.0779571 0.876107 
-0.0626519 0.0779571 0.876107 
-0.0611544 0.0779571 0.876107 
-0.0596569 0.0779571 0.876107 
-0.058009 0.0777555 0.873841 
-0.0563696 0.0775549 0.871587 
-0.0548798 0.0775549 0.871587 
-0.0533901 0.0775549 0.871587 
-0.0519003 0.0775549 0.871587 
-0.0502808 0.0773553 0.869344 
-0.0487949 0.0773553 0.869344 
-0.047309 0.0773553 0.869344 
-0.0458231 0.0773553 0.869344 
-0.0443371 0.0773553 0.869344 
-0.0428512 0.0773553 0.869344 
-0.0413653 0.0773553 0.869344 
-0.0396752 0.0769593 0.864893 
-0.0381969 0.0769593 0.864893 
-0.0367185 0.0769593 0.864893 
-0.0351502 0.0767628 0.862685 
-0.0336757 0.0767628 0.862685 
-0.0321191 0.0765673 0.860488 
-0.0307266 0.0767628 0.862685 
-0.0292521 0.0767628 0.862685 
-0.0277775 0.0767628 0.862685 
-0.0261693 0.0763728 0.858302 
-0.0247652 0.0765673 0.860488 
-0.0232944 0.0765673 0.860488 
-0.0218236 0.0765673 0.860488 
-0.0202497 0.0761793 0.856127 
-0.0187863 0.0761793 0.856127 
-0.0172792 0.0759868 0.853964 
-0.0158196 0.0759868 0.853964 
-0.0143599 0.0759868 0.853964 
-0.0129003 0.0759868 0.853964 
-0.0114118 0.0757952 0.851811 
-0.00995585 0.0757952 0.851811 
-0.00849989 0.0757952 0.851811 
-0.00704393 0.0757952 0.851811 
-0.00558798 0.0757952 0.851811 
-0.00412162 0.0756046 0.849669 
-0.00266933 0.0756046 0.849669 
-0.0012201 0.0757952 0.851811 
0.000235863 0.0757952 0.851811 
0.00168757 0.0756046 0.849669 
0.00313199 0.0754149 0.847537 
0.00458064 0.0754149 0.847537 
0.00604446 0.0756046 0.849669 
0.00751566 0.0757952 0.851811 
0.00897162 0.0757952 0.851811 
0.0104276 0.0757952 0.851811 
0.0118835 0.0757952 0.851811 
0.0133395 0.0757952 0.851811 
0.0148329 0.0759868 0.853964 
0.0162514 0.0757952 0.851811 
0.0177074 0.0757952 0.851811 
0.0191633 0.0757952 0.851811 
0.0206193 0.0757952 0.851811 
0.0220753 0.0757952 0.851811 
0.0235312 0.0757952 0.851811 
0.0249872 0.0757952 0.851811 
0.0264431 0.0757952 0.851811 
0.0279696 0.0759868 0.853964 
0.0294292 0.0759868 0.853964 
0.0308889 0.0759868 0.853964 
0.0323485 0.0759868 0.853964 
0.0338082 0.0759868 0.853964 
0.0352678 0.0759868 0.853964 
0.0368205 0.0761793 0.856127 
0.0382838 0.0761793 0.856127 
0.0398481 0.0763728 0.858302 
0.0413152 0.0763728 0.858302 
0.0427823 0.0763728 0.858302 
0.044362 0.0765673 0.860488 
0.0458328 0.0765673 0.860488 
0.0474244 0.0767628 0.862685 
0.0490241 0.0769593 0.864893 
0.0505024 0.0769593 0.864893 
0.0519807 0.0769593 0.864893 
0.053459 0.0769593 0.864893 
0.0549374 0.0769593 0.864893 
0.0565605 0.0771568 0.867113 
0.058342 0.0775549 0.871587 
0.0599865 0.0777555 0.873841 
0.0613216 0.0775549 0.871587 
0.0629738 0.0777555 0.873841 
0.0644674 0.0777555 0.873841 
0.066132 0.0779571 0.876107 
0.0676295 0.0779571 0.876107 
0.0693067 0.0781597 0.878384 
0.0711782 0.0785682 0.882975 
0.0726874 0.0785682 0.882975 
0.0741966 0.0785682 0.882975 
0.0759042 0.0787741 0.885289 
0.0778252 0.0791891 0.889952 
0.0793464 0.0791891 0.889952 
0.0812958 0.0796084 0.894665 
0.0826063 0.0793982 0.892302 
0.0845782 0.0798198 0.89704 
0.0865711 0.0802459 0.901829 
0.0888238 0.0808936 0.909108 
0.0906215 0.0811119 0.911561 
0.092429 0.0813313 0.914027 
0.0942462 0.0815519 0.916506 
0.0960734 0.0817737 0.918999 
0.0979105 0.0819967 0.921506 
0.0997576 0.082221 0.924026 
0.101337 0.082221 0.924026 
0.102916 0.082221 0.924026 
0.105071 0.0826732 0.929108 
0.106366 0.0824465 0.92656 
0.108247 0.0826732 0.929108 
0.109835 0.0826732 0.929108 
0.111423 0.0826732 0.929108 
0.113011 0.0826732 0.929108 
0.114599 0.0826732 0.929108 
0.116187 0.0826732 0.929108 
0.117775 0.0826732 0.929108 
0.119692 0.0829011 0.931669 
0.12162 0.0831304 0.934246 
0.122877 0.0829011 0.931669 
0.124814 0.0831304 0.934246 
0.126411 0.0831304 0.934246 
0.128008 0.0831304 0.934246 
0.129964 0.0833609 0.936836 
0.131565 0.0833609 0.936836 
0.133537 0.0835926 0.939441 
0.135142 0.0835926 0.939441 
0.137129 0.0838257 0.94206 
0.138354 0.0835926 0.939441 
0.14035 0.0838257 0.94206 
0.142357 0.0840601 0.944694 
0.143972 0.0840601 0.944694 
0.145586 0.0840601 0.944694 
0.147201 0.0840601 0.944694 
0.148816 0.0840601 0.944694 
0.150431 0.0840601 0.944694 
0.152045 0.0840601 0.944694 
0.154091 0.0842958 0.947343 
0.155275 0.0840601 0.944694 
0.157329 0.0842958 0.947343 
0.158504 0.0840601 0.944694 
0.160119 0.0840601 0.944694 
0.161734 0.0840601 0.944694 
0.163348 0.0840601 0.944694 
0.164963 0.0840601 0.944694 
0.166113 0.0838257 0.94206 
0.167724 0.0838257 0.94206 
0.169334 0.0838257 0.94206 
0.170944 0.0838257 0.94206 
0.172554 0.0838257 0.94206 
0.174651 0.0840601 0.944694 
0.175775 0.0838257 0.94206 
0.177385 0.0838257 0.94206 
0.178995 0.0838257 0.94206 
0.180605 0.0838257 0.94206 
0.182216 0.0838257 0.94206 
0.183826 0.0838257 0.94206 
0.185436 0.0838257 0.94206 
0.187046 0.0838257 0.94206 
0.189184 0.0840601 0.944694 
0.190267 0.0838257 0.94206 
0.191877 0.0838257 0.94206 
0.194028 0.0840601 0.944694 
0.195643 0.0840601 0.944694 
0.197257 0.0840601 0.944694 
0.198872 0.0840601 0.944694 
0.200487 0.0840601 0.944694 
0.202102 0.0840601 0.944694 
0.204288 0.0842958 0.947343 
0.206486 0.0845328 0.950006 
0.20811 0.0845328 0.950006 
0.209733 0.0845328 0.950006 
0.211357 0.0845328 0.950006 
0.213581 0.0847711 0.952685 
0.214605 0.0845328 0.950006 
0.216838 0.0847711 0.952685 
0.217852 0.0845328 0.950006 
0.219476 0.0845328 0.950006 
0.2211 0.0845328 0.950006 
0.223352 0.0847711 0.952685 
0.22498 0.0847711 0.952685 
0.226608 0.0847711 0.952685 
0.228237 0.0847711 0.952685 
0.229865 0.0847711 0.952685 
0.231494 0.0847711 0.952685 
0.233122 0.0847711 0.952685 
0.23475 0.0847711 0.952685 
0.236379 0.0847711 0.952685 
0.238007 0.0847711 0.952685 
0.239636 0.0847711 0.952685 
0.241264 0.0847711 0.952685 
0.242892 0.0847711 0.952685 
0.244521 0.0847711 0.952685 
0.246149 0.0847711 0.952685 
0.248478 0.0850108 0.955379 
0.250111 0.0850108 0.955379 
0.251744 0.0850108 0.955379 
0.253377 0.0850108 0.955379 
0.25501 0.0850108 0.955379 
0.256643 0.0850108 0.955379 
0.258276 0.0850108 0.955379 
0.261387 0.0854943 0.960812 
0.263029 0.0854943 0.960812 
0.264672 0.0854943 0.960812 
0.267073 0.0857381 0.963552 
0.26872 0.0857381 0.963552 
0.270367 0.0857381 0.963552 
0.272792 0.0859833 0.966308 
0.274444 0.0859833 0.966308 
0.276096 0.0859833 0.966308 
0.278544 0.0862299 0.96908 
0.281006 0.086478 0.971867 
0.281857 0.0862299 0.96908 
0.284328 0.086478 0.971867 
0.28599 0.086478 0.971867 
0.287651 0.086478 0.971867 
0.289312 0.086478 0.971867 
0.290973 0.086478 0.971867 
0.293478 0.0867274 0.974671 
0.294295 0.086478 0.971867 
0.29681 0.0867274 0.974671 
0.297618 0.086478 0.971867 
0.299279 0.086478 0.971867 
0.301808 0.0867274 0.974671 
0.303474 0.0867274 0.974671 
0.30514 0.0867274 0.974671 
0.306806 0.0867274 0.974671 
-0.346578 0.0828936 0.914027 
-0.345016 0.0828936 0.914027 
-0.342527 0.08267 0.911561 
-0.340051 0.0824475 0.909108 
-0.338498 0.0824475 0.909108 
-0.336944 0.0824475 0.909108 
-0.33539 0.0824475 0.909108 
-0.333836 0.0824475 0.909108 
-0.33139 0.0822263 0.906669 
-0.329841 0.0822263 0.906669 
-0.328291 0.0822263 0.906669 
-0.326741 0.0822263 0.906669 
-0.325191 0.0822263 0.906669 
-0.322776 0.0820062 0.904242 
-0.32123 0.0820062 0.904242 
-0.319684 0.0820062 0.904242 
-0.318139 0.0820062 0.904242 
-0.316593 0.0820062 0.904242 
-0.315048 0.0820062 0.904242 
-0.313502 0.0820062 0.904242 
-0.312794 0.0822263 0.906669 
-0.310411 0.0820062 0.904242 
-0.308865 0.0820062 0.904242 
-0.30732 0.0820062 0.904242 
-0.305774 0.0820062 0.904242 
-0.303417 0.0817873 0.901829 
-0.301875 0.0817873 0.901829 
-0.299534 0.0815696 0.899428 
-0.297997 0.0815696 0.899428 
-0.29646 0.0815696 0.899428 
-0.294139 0.0813531 0.89704 
-0.292606 0.0813531 0.89704 
-0.291073 0.0813531 0.89704 
-0.289539 0.0813531 0.89704 
-0.288006 0.0813531 0.89704 
-0.285714 0.0811377 0.894665 
-0.28494 0.0813531 0.89704 
-0.282656 0.0811377 0.894665 
-0.281127 0.0811377 0.894665 
-0.279597 0.0811377 0.894665 
-0.278068 0.0811377 0.894665 
-0.276539 0.0811377 0.894665 
-0.274284 0.0809234 0.892302 
-0.272758 0.0809234 0.892302 
-0.271233 0.0809234 0.892302 
-0.268998 0.0807102 0.889952 
-0.267476 0.0807102 0.889952 
-0.265955 0.0807102 0.889952 
-0.264434 0.0807102 0.889952 
-0.262222 0.0804982 0.887614 
-0.260705 0.0804982 0.887614 
-0.258509 0.0802873 0.885289 
-0.256996 0.0802873 0.885289 
-0.255483 0.0802873 0.885289 
-0.253969 0.0802873 0.885289 
-0.252456 0.0802873 0.885289 
-0.250287 0.0800775 0.882975 
-0.248778 0.0800775 0.882975 
-0.246624 0.0798688 0.880674 
-0.247051 0.0804982 0.887614 
-0.24618 0.0807102 0.889952 
-0.244659 0.0807102 0.889952 
-0.243138 0.0807102 0.889952 
-0.240351 0.0802873 0.885289 
-0.238838 0.0802873 0.885289 
-0.239205 0.0809234 0.892302 
-0.237679 0.0809234 0.892302 
-0.235532 0.0807102 0.889952 
-0.233396 0.0804982 0.887614 
-0.231272 0.0802873 0.885289 
-0.230969 0.0807102 0.889952 
-0.230663 0.0811377 0.894665 
-0.229134 0.0811377 0.894665 
-0.227604 0.0811377 0.894665 
-0.226075 0.0811377 0.894665 
-0.224546 0.0811377 0.894665 
-0.223017 0.0811377 0.894665 
-0.221488 0.0811377 0.894665 
-0.219958 0.0811377 0.894665 
-0.218429 0.0811377 0.894665 
-0.2169 0.0811377 0.894665 
-0.215371 0.0811377 0.894665 
-0.213841 0.0811377 0.894665 
-0.212312 0.0811377 0.894665 
-0.210226 0.0809234 0.892302 
-0.209254 0.0811377 0.894665 
-0.207725 0.0811377 0.894665 
-0.206195 0.0811377 0.894665 
-0.204126 0.0809234 0.892302 
-0.202601 0.0809234 0.892302 
-0.201608 0.0811377 0.894665 
-0.199025 0.0807102 0.889952 
-0.197503 0.0807102 0.889952 
-0.195467 0.0804982 0.887614 
-0.193442 0.0802873 0.885289 
-0.191929 0.0802873 0.885289 
-0.196597 0.0828936 0.914027 
-0.195035 0.0828936 0.914027 
-0.193472 0.0828936 0.914027 
-0.19191 0.0828936 0.914027 
-0.190348 0.0828936 0.914027 
-0.188786 0.0828936 0.914027 
-0.187223 0.0828936 0.914027 
-0.18516 0.08267 0.911561 
-0.183108 0.0824475 0.909108 
-0.181067 0.0822263 0.906669 
-0.179517 0.0822263 0.906669 
-0.177967 0.0822263 0.906669 
-0.176418 0.0822263 0.906669 
-0.174868 0.0822263 0.906669 
-0.173318 0.0822263 0.906669 
-0.171769 0.0822263 0.906669 
-0.170219 0.0822263 0.906669 
-0.168669 0.0822263 0.906669 
-0.167119 0.0822263 0.906669 
-0.16557 0.0822263 0.906669 
-0.16402 0.0822263 0.906669 
-0.16247 0.0822263 0.906669 
-0.16092 0.0822263 0.906669 
-0.159371 0.0822263 0.906669 
-0.157821 0.0822263 0.906669 
-0.156271 0.0822263 0.906669 
-0.154722 0.0822263 0.906669 
-0.153584 0.0824475 0.909108 
-0.15203 0.0824475 0.909108 
-0.150476 0.0824475 0.909108 
-0.148922 0.0824475 0.909108 
-0.147368 0.0824475 0.909108 
-0.145423 0.0822263 0.906669 
-0.143873 0.0822263 0.906669 
-0.141943 0.0820062 0.904242 
-0.140397 0.0820062 0.904242 
-0.138481 0.0817873 0.901829 
-0.13694 0.0817873 0.901829 
-0.135038 0.0815696 0.899428 
-0.133857 0.0817873 0.901829 
-0.132315 0.0817873 0.901829 
-0.131124 0.0820062 0.904242 
-0.129232 0.0817873 0.901829 
-0.127691 0.0817873 0.901829 
-0.126149 0.0817873 0.901829 
-0.124608 0.0817873 0.901829 
-0.123067 0.0817873 0.901829 
-0.121202 0.0815696 0.899428 
-0.119664 0.0815696 0.899428 
-0.117191 0.0809234 0.892302 
-0.115361 0.0807102 0.889952 
-0.11384 0.0807102 0.889952 
-0.112319 0.0807102 0.889952 
-0.110507 0.0804982 0.887614 
-0.10899 0.0804982 0.887614 
-0.107755 0.0807102 0.889952 
-0.106234 0.0807102 0.889952 
-0.104713 0.0807102 0.889952 
-0.103192 0.0807102 0.889952 
-0.101671 0.0807102 0.889952 
-0.10015 0.0807102 0.889952 
-0.0986285 0.0807102 0.889952 
-0.0971074 0.0807102 0.889952 
-0.0953351 0.0804982 0.887614 
-0.0938179 0.0804982 0.887614 
-0.0920589 0.0802873 0.885289 
-0.0903091 0.0800775 0.882975 
-0.0887999 0.0800775 0.882975 
-0.0870632 0.0798688 0.880674 
-0.0853354 0.0796611 0.878384 
-0.0838341 0.0796611 0.878384 
-0.0825473 0.0798688 0.880674 
-0.081042 0.0798688 0.880674 
-0.0795367 0.0798688 0.880674 
-0.0780314 0.0798688 0.880674 
-0.0765261 0.0798688 0.880674 
-0.0750208 0.0798688 0.880674 
-0.0733244 0.0796611 0.878384 
-0.071823 0.0796611 0.878384 
-0.0701393 0.0794546 0.876107 
-0.0686418 0.0794546 0.876107 
-0.0669707 0.0792491 0.873841 
-0.0656468 0.0794546 0.876107 
-0.0641494 0.0794546 0.876107 
-0.0626519 0.0794546 0.876107 
-0.0611544 0.0794546 0.876107 
-0.0596569 0.0794546 0.876107 
-0.0581594 0.0794546 0.876107 
-0.0565154 0.0792491 0.873841 
-0.0550218 0.0792491 0.873841 
-0.0533901 0.0790446 0.871587 
-0.0519003 0.0790446 0.871587 
-0.0504105 0.0790446 0.871587 
-0.0487949 0.0788413 0.869344 
-0.047309 0.0788413 0.869344 
-0.0458231 0.0788413 0.869344 
-0.0444515 0.0790446 0.871587 
-0.0428512 0.0788413 0.869344 
-0.0413653 0.0788413 0.869344 
-0.039777 0.0786389 0.867113 
-0.0381969 0.0784376 0.864893 
-0.0366248 0.0782374 0.862685 
-0.0351502 0.0782374 0.862685 
-0.0336757 0.0782374 0.862685 
-0.0322011 0.0782374 0.862685 
-0.0307266 0.0782374 0.862685 
-0.0292521 0.0782374 0.862685 
-0.0277775 0.0782374 0.862685 
-0.0261693 0.0778399 0.858302 
-0.0246397 0.0776426 0.856127 
-0.0231763 0.0776426 0.856127 
-0.0218236 0.0780381 0.860488 
-0.0201985 0.0774464 0.853964 
-0.0187389 0.0774464 0.853964 
-0.0172792 0.0774464 0.853964 
-0.0158196 0.0774464 0.853964 
-0.0143963 0.0776426 0.856127 
-0.0129003 0.0774464 0.853964 
-0.0114407 0.0774464 0.853964 
-0.00998102 0.0774464 0.853964 
-0.00849989 0.0772512 0.851811 
-0.00704393 0.0772512 0.851811 
-0.00558798 0.0772512 0.851811 
-0.00412162 0.0770569 0.849669 
-0.00266933 0.0770569 0.849669 
-0.00121703 0.0770569 0.849669 
0.000235269 0.0770569 0.849669 
0.00167912 0.0766713 0.845417 
0.00312415 0.0766713 0.845417 
0.00456918 0.0766713 0.845417 
0.00601421 0.0766713 0.845417 
0.00747795 0.0768636 0.847537 
0.00894906 0.0770569 0.849669 
0.0104276 0.0772512 0.851811 
0.0118835 0.0772512 0.851811 
0.0133395 0.0772512 0.851811 
0.0147955 0.0772512 0.851811 
0.0162514 0.0772512 0.851811 
0.0177074 0.0772512 0.851811 
0.0191633 0.0772512 0.851811 
0.0206193 0.0772512 0.851811 
0.0220753 0.0772512 0.851811 
0.0235312 0.0772512 0.851811 
0.0249872 0.0772512 0.851811 
0.0264431 0.0772512 0.851811 
0.0278991 0.0772512 0.851811 
0.0294292 0.0774464 0.853964 
0.0308889 0.0774464 0.853964 
0.0323485 0.0774464 0.853964 
0.0338082 0.0774464 0.853964 
0.0352678 0.0774464 0.853964 
0.0368205 0.0776426 0.856127 
0.0382838 0.0776426 0.856127 
0.0397472 0.0776426 0.856127 
0.0412105 0.0776426 0.856127 
0.0427823 0.0778399 0.858302 
0.044362 0.0780381 0.860488 
0.0458328 0.0780381 0.860488 
0.0474244 0.0782374 0.862685 
0.0490241 0.0784376 0.864893 
0.0505024 0.0784376 0.864893 
0.0521141 0.0786389 0.867113 
0.0535962 0.0786389 0.867113 
0.0552201 0.0788413 0.869344 
0.0568523 0.0790446 0.871587 
0.058342 0.0790446 0.871587 
0.0599865 0.0792491 0.873841 
0.0614801 0.0792491 0.873841 
0.0629738 0.0792491 0.873841 
0.0646345 0.0794546 0.876107 
0.0663039 0.0796611 0.878384 
0.0678053 0.0796611 0.878384 
0.0694874 0.0798688 0.880674 
0.0709926 0.0798688 0.880674 
0.0726874 0.0800775 0.882975 
0.0741966 0.0800775 0.882975 
0.0761036 0.0804982 0.887614 
0.0778252 0.0807102 0.889952 
0.0795559 0.0809234 0.892302 
0.0812958 0.0811377 0.894665 
0.082825 0.0811377 0.894665 
0.0850296 0.0817873 0.901829 
0.0870357 0.0822263 0.906669 
0.0888238 0.0824475 0.909108 
0.0906215 0.08267 0.911561 
0.092429 0.0828936 0.914027 
0.0942462 0.0831185 0.916506 
0.0960734 0.0833445 0.918999 
0.0981782 0.0838004 0.924026 
0.0997576 0.0838004 0.924026 
0.101337 0.0838004 0.924026 
0.103199 0.0840302 0.92656 
0.105071 0.0842613 0.929108 
0.106659 0.0842613 0.929108 
0.108247 0.0842613 0.929108 
0.109835 0.0842613 0.929108 
0.111423 0.0842613 0.929108 
0.113323 0.0844936 0.931669 
0.114915 0.0844936 0.931669 
0.116507 0.0844936 0.931669 
0.1181 0.0844936 0.931669 
0.120023 0.0847272 0.934246 
0.12162 0.0847272 0.934246 
0.123217 0.0847272 0.934246 
0.124814 0.0847272 0.934246 
0.126411 0.0847272 0.934246 
0.128363 0.0849622 0.936836 
0.129964 0.0849622 0.936836 
0.131931 0.0851984 0.939441 
0.133537 0.0851984 0.939441 
0.135142 0.0851984 0.939441 
0.137129 0.0854359 0.94206 
0.13874 0.0854359 0.94206 
0.14035 0.0854359 0.94206 
0.142357 0.0856748 0.944694 
0.143972 0.0856748 0.944694 
0.145995 0.085915 0.947343 
0.147614 0.085915 0.947343 
0.149233 0.085915 0.947343 
0.150852 0.085915 0.947343 
0.152472 0.085915 0.947343 
0.154091 0.085915 0.947343 
0.15571 0.085915 0.947343 
0.157329 0.085915 0.947343 
0.158949 0.085915 0.947343 
0.160119 0.0856748 0.944694 
0.161734 0.0856748 0.944694 
0.163348 0.0856748 0.944694 
0.164963 0.0856748 0.944694 
0.166113 0.0854359 0.94206 
0.167724 0.0854359 0.94206 
0.169334 0.0854359 0.94206 
0.170944 0.0854359 0.94206 
0.172554 0.0854359 0.94206 
0.174651 0.0856748 0.944694 
0.176266 0.0856748 0.944694 
0.177881 0.0856748 0.944694 
0.179496 0.0856748 0.944694 
0.180605 0.0854359 0.94206 
0.182216 0.0854359 0.94206 
0.183826 0.0854359 0.94206 
0.185954 0.0856748 0.944694 
0.187569 0.0856748 0.944694 
0.189184 0.0856748 0.944694 
0.190799 0.0856748 0.944694 
0.192413 0.0856748 0.944694 
0.194028 0.0856748 0.944694 
0.195643 0.0856748 0.944694 
0.197257 0.0856748 0.944694 
0.198872 0.0856748 0.944694 
0.201049 0.085915 0.947343 
0.202668 0.085915 0.947343 
0.204862 0.0861566 0.950006 
0.206486 0.0861566 0.950006 
0.208696 0.0863995 0.952685 
0.210325 0.0863995 0.952685 
0.211953 0.0863995 0.952685 
0.213581 0.0863995 0.952685 
0.21521 0.0863995 0.952685 
0.216838 0.0863995 0.952685 
0.217852 0.0861566 0.950006 
0.219476 0.0861566 0.950006 
0.2211 0.0861566 0.950006 
0.223352 0.0863995 0.952685 
0.224348 0.0861566 0.950006 
0.226608 0.0863995 0.952685 
0.228882 0.0866438 0.955379 
0.230515 0.0866438 0.955379 
0.231494 0.0863995 0.952685 
0.233122 0.0863995 0.952685 
0.23475 0.0863995 0.952685 
0.236379 0.0863995 0.952685 
0.23868 0.0866438 0.955379 
0.240313 0.0866438 0.955379 
0.241264 0.0863995 0.952685 
0.242892 0.0863995 0.952685 
0.245212 0.0866438 0.955379 
0.246845 0.0866438 0.955379 
0.248478 0.0866438 0.955379 
0.25082 0.0868895 0.958088 
0.253176 0.0871366 0.960812 
0.254818 0.0871366 0.960812 
0.25646 0.0871366 0.960812 
0.258103 0.0871366 0.960812 
0.259745 0.0871366 0.960812 
0.262133 0.0873851 0.963552 
0.263779 0.0873851 0.963552 
0.265426 0.0873851 0.963552 
0.267837 0.087635 0.966308 
0.26872 0.0873851 0.963552 
0.271141 0.087635 0.966308 
0.273575 0.0878863 0.96908 
0.275231 0.0878863 0.96908 
0.276887 0.0878863 0.96908 
0.279345 0.0881391 0.971867 
0.281817 0.0883934 0.974671 
0.283483 0.0883934 0.974671 
0.285149 0.0883934 0.974671 
0.286815 0.0883934 0.974671 
0.288481 0.0883934 0.974671 
0.290147 0.0883934 0.974671 
0.290973 0.0881391 0.971867 
0.293478 0.0883934 0.974671 
0.295144 0.0883934 0.974671 
0.29681 0.0883934 0.974671 
0.297618 0.0881391 0.971867 
0.299279 0.0881391 0.971867 
0.301808 0.0883934 0.974671 
0.303474 0.0883934 0.974671 
0.30514 0.0883934 0.974671 
0.306806 0.0883934 0.974671 
-0.346578 0.0844559 0.914027 
-0.345016 0.0844559 0.914027 
-0.342527 0.0842281 0.911561 
-0.340051 0.0840014 0.909108 
-0.338498 0.0840014 0.909108 
-0.336944 0.0840014 0.909108 
-0.33539 0.0840014 0.909108 
-0.33294 0.083776 0.906669 
-0.33139 0.083776 0.906669 
-0.329841 0.083776 0.906669 
-0.328291 0.083776 0.906669 
-0.326741 0.083776 0.906669 
-0.325191 0.083776 0.906669 
-0.322776 0.0835518 0.904242 
-0.32123 0.0835518 0.904242 
-0.319684 0.0835518 0.904242 
-0.318139 0.0835518 0.904242 
-0.316593 0.0835518 0.904242 
-0.315048 0.0835518 0.904242 
-0.313502 0.0835518 0.904242 
-0.311957 0.0835518 0.904242 
-0.310411 0.0835518 0.904242 
-0.308865 0.0835518 0.904242 
-0.30732 0.0835518 0.904242 
-0.304958 0.0833288 0.901829 
-0.303417 0.0833288 0.901829 
-0.301875 0.0833288 0.901829 
-0.299534 0.083107 0.899428 
-0.297206 0.0828863 0.89704 
-0.29646 0.083107 0.899428 
-0.294922 0.083107 0.899428 
-0.292606 0.0828863 0.89704 
-0.290302 0.0826669 0.894665 
-0.288773 0.0826669 0.894665 
-0.287243 0.0826669 0.894665 
-0.285714 0.0826669 0.894665 
-0.284185 0.0826669 0.894665 
-0.282656 0.0826669 0.894665 
-0.280384 0.0824485 0.892302 
-0.278859 0.0824485 0.892302 
-0.277334 0.0824485 0.892302 
-0.275809 0.0824485 0.892302 
-0.274284 0.0824485 0.892302 
-0.272758 0.0824485 0.892302 
-0.271233 0.0824485 0.892302 
-0.268998 0.0822314 0.889952 
-0.266774 0.0820154 0.887614 
-0.265955 0.0822314 0.889952 
-0.263739 0.0820154 0.887614 
-0.262222 0.0820154 0.887614 
-0.260705 0.0820154 0.887614 
-0.258509 0.0818005 0.885289 
-0.256324 0.0815867 0.882975 
-0.254815 0.0815867 0.882975 
-0.253969 0.0818005 0.885289 
-0.251796 0.0815867 0.882975 
-0.250287 0.0815867 0.882975 
-0.248778 0.0815867 0.882975 
-0.245983 0.0811625 0.878384 
-0.244482 0.0811625 0.878384 
-0.24298 0.0811625 0.878384 
-0.242741 0.0815867 0.882975 
-0.241864 0.0818005 0.885289 
-0.240351 0.0818005 0.885289 
-0.238838 0.0818005 0.885289 
-0.237324 0.0818005 0.885289 
-0.235811 0.0818005 0.885289 
-0.234914 0.0820154 0.887614 
-0.232785 0.0818005 0.885289 
-0.231272 0.0818005 0.885289 
-0.230362 0.0820154 0.887614 
-0.230054 0.0824485 0.892302 
-0.229134 0.0826669 0.894665 
-0.227604 0.0826669 0.894665 
-0.226075 0.0826669 0.894665 
-0.224546 0.0826669 0.894665 
-0.223017 0.0826669 0.894665 
-0.221488 0.0826669 0.894665 
-0.219958 0.0826669 0.894665 
-0.218429 0.0826669 0.894665 
-0.2169 0.0826669 0.894665 
-0.214802 0.0824485 0.892302 
-0.213277 0.0824485 0.892302 
-0.211752 0.0824485 0.892302 
-0.210226 0.0824485 0.892302 
-0.209254 0.0826669 0.894665 
-0.207725 0.0826669 0.894665 
-0.205651 0.0824485 0.892302 
-0.203588 0.0822314 0.889952 
-0.202067 0.0822314 0.889952 
-0.201075 0.0824485 0.892302 
-0.199025 0.0822314 0.889952 
-0.197503 0.0822314 0.889952 
-0.195467 0.0820154 0.887614 
-0.193442 0.0818005 0.885289 
-0.191929 0.0818005 0.885289 
-0.196597 0.0844559 0.914027 
-0.195035 0.0844559 0.914027 
-0.193472 0.0844559 0.914027 
-0.19191 0.0844559 0.914027 
-0.190348 0.0844559 0.914027 
-0.188786 0.0844559 0.914027 
-0.187223 0.0844559 0.914027 
-0.185661 0.0844559 0.914027 
-0.183108 0.0840014 0.909108 
-0.181067 0.083776 0.906669 
-0.179517 0.083776 0.906669 
-0.177967 0.083776 0.906669 
-0.176418 0.083776 0.906669 
-0.174868 0.083776 0.906669 
-0.172854 0.0835518 0.904242 
-0.171309 0.0835518 0.904242 
-0.170219 0.083776 0.906669 
-0.168669 0.083776 0.906669 
-0.167119 0.083776 0.906669 
-0.16557 0.083776 0.906669 
-0.16402 0.083776 0.906669 
-0.16247 0.083776 0.906669 
-0.16092 0.083776 0.906669 
-0.159371 0.083776 0.906669 
-0.156561 0.083107 0.899428 
-0.156271 0.083776 0.906669 
-0.154307 0.0835518 0.904242 
-0.151949 0.083107 0.899428 
-0.151622 0.083776 0.906669 
-0.150072 0.083776 0.906669 
-0.148125 0.0835518 0.904242 
-0.14658 0.0835518 0.904242 
-0.144647 0.0833288 0.901829 
-0.143105 0.0833288 0.901829 
-0.140812 0.0828863 0.89704 
-0.13965 0.083107 0.899428 
-0.137746 0.0828863 0.89704 
-0.136575 0.083107 0.899428 
-0.134679 0.0828863 0.89704 
-0.133146 0.0828863 0.89704 
-0.131963 0.083107 0.899428 
-0.130426 0.083107 0.899428 
-0.128888 0.083107 0.899428 
-0.127351 0.083107 0.899428 
-0.125814 0.083107 0.899428 
-0.124276 0.083107 0.899428 
-0.121446 0.0822314 0.889952 
-0.119925 0.0822314 0.889952 
-0.118404 0.0822314 0.889952 
-0.116882 0.0822314 0.889952 
-0.115361 0.0822314 0.889952 
-0.11384 0.0822314 0.889952 
-0.112319 0.0822314 0.889952 
-0.110507 0.0820154 0.887614 
-0.10899 0.0820154 0.887614 
-0.107755 0.0822314 0.889952 
-0.105678 0.0818005 0.885289 
-0.104713 0.0822314 0.889952 
-0.103192 0.0822314 0.889952 
-0.101671 0.0822314 0.889952 
-0.10015 0.0822314 0.889952 
-0.0986285 0.0822314 0.889952 
-0.0968523 0.0820154 0.887614 
-0.0950853 0.0818005 0.885289 
-0.0938179 0.0820154 0.887614 
-0.0920589 0.0818005 0.885289 
-0.0903091 0.0815867 0.882975 
-0.0887999 0.0815867 0.882975 
-0.0870632 0.081374 0.880674 
-0.0853354 0.0811625 0.878384 
-0.0838341 0.0811625 0.878384 
-0.0823327 0.0811625 0.878384 
-0.0808313 0.0811625 0.878384 
-0.0793299 0.0811625 0.878384 
-0.0778285 0.0811625 0.878384 
-0.0763272 0.0811625 0.878384 
-0.0748258 0.0811625 0.878384 
-0.0733244 0.0811625 0.878384 
-0.0716368 0.080952 0.876107 
-0.0699579 0.0807427 0.873841 
-0.0684643 0.0807427 0.873841 
-0.0669707 0.0807427 0.873841 
-0.0654771 0.0807427 0.873841 
-0.0639834 0.0807427 0.873841 
-0.0624898 0.0807427 0.873841 
-0.0609962 0.0807427 0.873841 
-0.0596569 0.080952 0.876107 
-0.058009 0.0807427 0.873841 
-0.0565154 0.0807427 0.873841 
-0.0548798 0.0805344 0.871587 
-0.0533901 0.0805344 0.871587 
-0.0519003 0.0805344 0.871587 
-0.0504105 0.0805344 0.871587 
-0.0487949 0.0803272 0.869344 
-0.047309 0.0803272 0.869344 
-0.0458231 0.0803272 0.869344 
-0.0443371 0.0803272 0.869344 
-0.0428512 0.0803272 0.869344 
-0.0413653 0.0803272 0.869344 
-0.039777 0.080121 0.867113 
-0.0381969 0.079916 0.864893 
-0.0368128 0.080121 0.867113 
-0.0352402 0.079916 0.864893 
-0.0337619 0.079916 0.864893 
-0.0322836 0.079916 0.864893 
-0.0307266 0.0797119 0.862685 
-0.0292521 0.0797119 0.862685 
-0.0277775 0.0797119 0.862685 
-0.0261693 0.0793069 0.858302 
-0.0246397 0.079106 0.856127 
-0.0231178 0.078906 0.853964 
-0.0216581 0.078906 0.853964 
-0.0201985 0.078906 0.853964 
-0.0187389 0.078906 0.853964 
-0.0172792 0.078906 0.853964 
-0.0158196 0.078906 0.853964 
-0.0143599 0.078906 0.853964 
-0.0129003 0.078906 0.853964 
-0.0114407 0.078906 0.853964 
-0.00998102 0.078906 0.853964 
-0.00849989 0.0787071 0.851811 
-0.00704393 0.0787071 0.851811 
-0.00557392 0.0785092 0.849669 
-0.00412162 0.0785092 0.849669 
-0.00266933 0.0785092 0.849669 
-0.00121703 0.0785092 0.849669 
0.000235269 0.0785092 0.849669 
0.00168757 0.0785092 0.849669 
0.00312415 0.0781163 0.845417 
0.00456918 0.0781163 0.845417 
0.00601421 0.0781163 0.845417 
0.00747795 0.0783123 0.847537 
0.00892661 0.0783123 0.847537 
0.0104014 0.0785092 0.849669 
0.0118835 0.0787071 0.851811 
0.013306 0.0785092 0.849669 
0.0147955 0.0787071 0.851811 
0.0162514 0.0787071 0.851811 
0.0177074 0.0787071 0.851811 
0.0191633 0.0787071 0.851811 
0.0206193 0.0787071 0.851811 
0.0220753 0.0787071 0.851811 
0.0235312 0.0787071 0.851811 
0.0249872 0.0787071 0.851811 
0.0264431 0.0787071 0.851811 
0.0278991 0.0787071 0.851811 
0.0294292 0.078906 0.853964 
0.0308889 0.078906 0.853964 
0.0323485 0.078906 0.853964 
0.0338082 0.078906 0.853964 
0.0353572 0.079106 0.856127 
0.0368205 0.079106 0.856127 
0.0382838 0.079106 0.856127 
0.0397472 0.079106 0.856127 
0.0413152 0.0793069 0.858302 
0.0427823 0.0793069 0.858302 
0.044362 0.0795089 0.860488 
0.0458328 0.0795089 0.860488 
0.0474244 0.0797119 0.862685 
0.0490241 0.079916 0.864893 
0.0505024 0.079916 0.864893 
0.0521141 0.080121 0.867113 
0.0537341 0.0803272 0.869344 
0.0553625 0.0805344 0.871587 
0.0568523 0.0805344 0.871587 
0.0584929 0.0807427 0.873841 
0.0599865 0.0807427 0.873841 
0.0614801 0.0807427 0.873841 
0.0633012 0.0811625 0.878384 
0.0649715 0.081374 0.880674 
0.0664768 0.081374 0.880674 
0.0681597 0.0815867 0.882975 
0.0696689 0.0815867 0.882975 
0.0713647 0.0818005 0.885289 
0.0730693 0.0820154 0.887614 
0.0745865 0.0820154 0.887614 
0.0763041 0.0822314 0.889952 
0.0780308 0.0824485 0.892302 
0.0797666 0.0826669 0.894665 
0.0815116 0.0828863 0.89704 
0.082825 0.0826669 0.894665 
0.0848033 0.083107 0.899428 
0.0870357 0.083776 0.906669 
0.0888238 0.0840014 0.909108 
0.0906215 0.0842281 0.911561 
0.092429 0.0844559 0.914027 
0.0942462 0.084685 0.916506 
0.0963354 0.0851469 0.921506 
0.0979105 0.0851469 0.921506 
0.0997576 0.0853798 0.924026 
0.101337 0.0853798 0.924026 
0.103199 0.0856139 0.92656 
0.105071 0.0858493 0.929108 
0.106659 0.0858493 0.929108 
0.108247 0.0858493 0.929108 
0.109835 0.0858493 0.929108 
0.111423 0.0858493 0.929108 
0.113323 0.0860861 0.931669 
0.114915 0.0860861 0.931669 
0.116507 0.0860861 0.931669 
0.1181 0.0860861 0.931669 
0.120023 0.0863241 0.934246 
0.121957 0.0865634 0.936836 
0.123559 0.0865634 0.936836 
0.12516 0.0865634 0.936836 
0.126761 0.0865634 0.936836 
0.128363 0.0865634 0.936836 
0.129964 0.0865634 0.936836 
0.131931 0.0868041 0.939441 
0.133537 0.0868041 0.939441 
0.135142 0.0868041 0.939441 
0.137129 0.0870461 0.94206 
0.13874 0.0870461 0.94206 
0.14035 0.0870461 0.94206 
0.142357 0.0872895 0.944694 
0.144375 0.0875343 0.947343 
0.145995 0.0875343 0.947343 
0.148029 0.0877804 0.950006 
0.149233 0.0875343 0.947343 
0.150852 0.0875343 0.947343 
0.1529 0.0877804 0.950006 
0.154524 0.0877804 0.950006 
0.156148 0.0877804 0.950006 
0.157329 0.0875343 0.947343 
0.158949 0.0875343 0.947343 
0.160119 0.0872895 0.944694 
0.161734 0.0872895 0.944694 
0.163348 0.0872895 0.944694 
0.164963 0.0872895 0.944694 
0.166113 0.0870461 0.94206 
0.167724 0.0870461 0.94206 
0.169334 0.0870461 0.94206 
0.170944 0.0870461 0.94206 
0.172554 0.0870461 0.94206 
0.174651 0.0872895 0.944694 
0.176266 0.0872895 0.944694 
0.177881 0.0872895 0.944694 
0.179496 0.0872895 0.944694 
0.18111 0.0872895 0.944694 
0.182725 0.0872895 0.944694 
0.18434 0.0872895 0.944694 
0.185954 0.0872895 0.944694 
0.188095 0.0875343 0.947343 
0.189714 0.0875343 0.947343 
0.191334 0.0875343 0.947343 
0.192953 0.0875343 0.947343 
0.194572 0.0875343 0.947343 
0.196191 0.0875343 0.947343 
0.197811 0.0875343 0.947343 
0.19943 0.0875343 0.947343 
0.201049 0.0875343 0.947343 
0.202668 0.0875343 0.947343 
0.204862 0.0877804 0.950006 
0.207068 0.0880279 0.952685 
0.208696 0.0880279 0.952685 
0.210325 0.0880279 0.952685 
0.211953 0.0880279 0.952685 
0.213581 0.0880279 0.952685 
0.21521 0.0880279 0.952685 
0.216838 0.0880279 0.952685 
0.218467 0.0880279 0.952685 
0.220095 0.0880279 0.952685 
0.221723 0.0880279 0.952685 
0.223983 0.0882768 0.955379 
0.225616 0.0882768 0.955379 
0.227249 0.0882768 0.955379 
0.228882 0.0882768 0.955379 
0.231169 0.0885271 0.958088 
0.232148 0.0882768 0.955379 
0.233781 0.0882768 0.955379 
0.235414 0.0882768 0.955379 
0.236379 0.0880279 0.952685 
0.23868 0.0882768 0.955379 
0.240313 0.0882768 0.955379 
0.241264 0.0880279 0.952685 
0.243579 0.0882768 0.955379 
0.245212 0.0882768 0.955379 
0.248249 0.0887789 0.960812 
0.249891 0.0887789 0.960812 
0.252251 0.089032 0.963552 
0.253898 0.089032 0.963552 
0.255545 0.089032 0.963552 
0.257192 0.089032 0.963552 
0.258839 0.089032 0.963552 
0.260486 0.089032 0.963552 
0.262133 0.089032 0.963552 
0.263779 0.089032 0.963552 
0.265426 0.089032 0.963552 
0.267837 0.0892867 0.966308 
0.269489 0.0892867 0.966308 
0.271918 0.0895427 0.96908 
0.274362 0.0898003 0.971867 
0.276023 0.0898003 0.971867 
0.277684 0.0898003 0.971867 
0.280151 0.0900593 0.974671 
0.281817 0.0900593 0.974671 
0.283483 0.0900593 0.974671 
0.285149 0.0900593 0.974671 
0.286815 0.0900593 0.974671 
0.288481 0.0900593 0.974671 
0.290147 0.0900593 0.974671 
0.291813 0.0900593 0.974671 
0.293478 0.0900593 0.974671 
0.295144 0.0900593 0.974671 
0.29681 0.0900593 0.974671 
0.297618 0.0898003 0.971867 
0.300142 0.0900593 0.974671 
0.301808 0.0900593 0.974671 
0.303474 0.0900593 0.974671 
0.30514 0.0900593 0.974671 
0.306806 0.0900593 0.974671 
-0.34814 0.0860182 0.914027 
-0.346578 0.0860182 0.914027 
-0.345016 0.0860182 0.914027 
-0.342527 0.0857861 0.911561 
-0.340969 0.0857861 0.911561 
-0.339411 0.0857861 0.911561 
-0.336944 0.0855553 0.909108 
-0.33539 0.0855553 0.909108 
-0.333836 0.0855553 0.909108 
-0.33139 0.0853257 0.906669 
-0.329841 0.0853257 0.906669 
-0.328291 0.0853257 0.906669 
-0.326741 0.0853257 0.906669 
-0.325191 0.0853257 0.906669 
-0.323642 0.0853257 0.906669 
-0.322092 0.0853257 0.906669 
-0.319684 0.0850974 0.904242 
-0.318139 0.0850974 0.904242 
-0.316593 0.0850974 0.904242 
-0.315048 0.0850974 0.904242 
-0.313502 0.0850974 0.904242 
-0.312794 0.0853257 0.906669 
-0.310411 0.0850974 0.904242 
-0.308865 0.0850974 0.904242 
-0.30732 0.0850974 0.904242 
-0.304958 0.0848703 0.901829 
-0.303417 0.0848703 0.901829 
-0.301875 0.0848703 0.901829 
-0.299534 0.0846443 0.899428 
-0.297206 0.0844196 0.89704 
-0.29646 0.0846443 0.899428 
-0.294922 0.0846443 0.899428 
-0.292606 0.0844196 0.89704 
-0.290302 0.0841961 0.894665 
-0.288773 0.0841961 0.894665 
-0.287243 0.0841961 0.894665 
-0.28496 0.0839737 0.892302 
-0.284185 0.0841961 0.894665 
-0.281909 0.0839737 0.892302 
-0.280384 0.0839737 0.892302 
-0.278859 0.0839737 0.892302 
-0.277334 0.0839737 0.892302 
-0.275809 0.0839737 0.892302 
-0.274284 0.0839737 0.892302 
-0.272758 0.0839737 0.892302 
-0.271233 0.0839737 0.892302 
-0.268998 0.0837525 0.889952 
-0.266774 0.0835325 0.887614 
-0.265257 0.0835325 0.887614 
-0.263739 0.0835325 0.887614 
-0.262222 0.0835325 0.887614 
-0.260705 0.0835325 0.887614 
-0.258509 0.0833137 0.885289 
-0.256324 0.0830959 0.882975 
-0.254151 0.0828793 0.880674 
-0.253306 0.0830959 0.882975 
-0.251796 0.0830959 0.882975 
-0.249635 0.0828793 0.880674 
-0.247485 0.0826639 0.878384 
-0.245345 0.0824495 0.876107 
-0.243848 0.0824495 0.876107 
-0.24425 0.0830959 0.882975 
-0.242741 0.0830959 0.882975 
-0.240603 0.0828793 0.880674 
-0.240351 0.0833137 0.885289 
-0.238838 0.0833137 0.885289 
-0.237324 0.0833137 0.885289 
-0.235811 0.0833137 0.885289 
-0.234914 0.0835325 0.887614 
-0.233396 0.0835325 0.887614 
-0.231272 0.0833137 0.885289 
-0.230362 0.0835325 0.887614 
-0.230663 0.0841961 0.894665 
-0.229134 0.0841961 0.894665 
-0.227604 0.0841961 0.894665 
-0.226075 0.0841961 0.894665 
-0.224546 0.0841961 0.894665 
-0.223017 0.0841961 0.894665 
-0.221488 0.0841961 0.894665 
-0.219958 0.0841961 0.894665 
-0.218429 0.0841961 0.894665 
-0.216327 0.0839737 0.892302 
-0.214802 0.0839737 0.892302 
-0.213277 0.0839737 0.892302 
-0.211752 0.0839737 0.892302 
-0.210226 0.0839737 0.892302 
-0.209254 0.0841961 0.894665 
-0.207725 0.0841961 0.894665 
-0.205651 0.0839737 0.892302 
-0.203588 0.0837525 0.889952 
-0.202067 0.0837525 0.889952 
-0.201075 0.0839737 0.892302 
-0.199025 0.0837525 0.889952 
-0.197503 0.0837525 0.889952 
-0.195467 0.0835325 0.887614 
-0.193442 0.0833137 0.885289 
-0.191929 0.0833137 0.885289 
-0.196067 0.0857861 0.911561 
-0.194509 0.0857861 0.911561 
-0.193472 0.0860182 0.914027 
-0.19191 0.0860182 0.914027 
-0.190348 0.0860182 0.914027 
-0.188786 0.0860182 0.914027 
-0.187223 0.0860182 0.914027 
-0.185661 0.0860182 0.914027 
-0.183108 0.0855553 0.909108 
-0.181554 0.0855553 0.909108 
-0.179517 0.0853257 0.906669 
-0.177967 0.0853257 0.906669 
-0.176418 0.0853257 0.906669 
-0.174868 0.0853257 0.906669 
-0.172854 0.0850974 0.904242 
-0.171309 0.0850974 0.904242 
-0.169763 0.0850974 0.904242 
-0.168218 0.0850974 0.904242 
-0.166672 0.0850974 0.904242 
-0.165127 0.0850974 0.904242 
-0.163581 0.0850974 0.904242 
-0.16247 0.0853257 0.906669 
-0.16049 0.0850974 0.904242 
-0.157678 0.0844196 0.89704 
-0.156145 0.0844196 0.89704 
-0.154612 0.0844196 0.89704 
-0.152673 0.0841961 0.894665 
-0.151545 0.0844196 0.89704 
-0.150411 0.0846443 0.899428 
-0.148479 0.0844196 0.89704 
-0.146945 0.0844196 0.89704 
-0.145799 0.0846443 0.899428 
-0.144262 0.0846443 0.899428 
-0.142346 0.0844196 0.89704 
-0.141187 0.0846443 0.899428 
-0.139279 0.0844196 0.89704 
-0.137746 0.0844196 0.89704 
-0.136213 0.0844196 0.89704 
-0.134679 0.0844196 0.89704 
-0.133146 0.0844196 0.89704 
-0.131613 0.0844196 0.89704 
-0.130426 0.0846443 0.899428 
-0.128888 0.0846443 0.899428 
-0.127013 0.0844196 0.89704 
-0.12548 0.0844196 0.89704 
-0.123292 0.0839737 0.892302 
-0.121446 0.0837525 0.889952 
-0.119925 0.0837525 0.889952 
-0.118716 0.0839737 0.892302 
-0.116882 0.0837525 0.889952 
-0.115058 0.0835325 0.887614 
-0.11384 0.0837525 0.889952 
-0.112319 0.0837525 0.889952 
-0.110507 0.0835325 0.887614 
-0.10899 0.0835325 0.887614 
-0.107755 0.0837525 0.889952 
-0.105955 0.0835325 0.887614 
-0.104713 0.0837525 0.889952 
-0.103192 0.0837525 0.889952 
-0.101671 0.0837525 0.889952 
-0.10015 0.0837525 0.889952 
-0.0986285 0.0837525 0.889952 
-0.0965985 0.0833137 0.885289 
-0.0948368 0.0830959 0.882975 
-0.0933276 0.0830959 0.882975 
-0.091579 0.0828793 0.880674 
-0.0900738 0.0828793 0.880674 
-0.0885685 0.0828793 0.880674 
-0.0868368 0.0826639 0.878384 
-0.0853354 0.0826639 0.878384 
-0.0836167 0.0824495 0.876107 
-0.0823327 0.0826639 0.878384 
-0.0808313 0.0826639 0.878384 
-0.0793299 0.0826639 0.878384 
-0.0778285 0.0826639 0.878384 
-0.0763272 0.0826639 0.878384 
-0.0748258 0.0826639 0.878384 
-0.0731343 0.0824495 0.876107 
-0.0714515 0.0822363 0.873841 
-0.0699579 0.0822363 0.873841 
-0.0682877 0.0820242 0.871587 
-0.0667979 0.0820242 0.871587 
-0.0653082 0.0820242 0.871587 
-0.0638184 0.0820242 0.871587 
-0.0624898 0.0822363 0.873841 
-0.0609962 0.0822363 0.873841 
-0.0595026 0.0822363 0.873841 
-0.058009 0.0822363 0.873841 
-0.0565154 0.0822363 0.873841 
-0.0548798 0.0820242 0.871587 
-0.0533901 0.0820242 0.871587 
-0.0519003 0.0820242 0.871587 
-0.0504105 0.0820242 0.871587 
-0.0487949 0.0818131 0.869344 
-0.047309 0.0818131 0.869344 
-0.0458231 0.0818131 0.869344 
-0.0443371 0.0818131 0.869344 
-0.0428512 0.0818131 0.869344 
-0.0413653 0.0818131 0.869344 
-0.039777 0.0816032 0.867113 
-0.0381969 0.0813943 0.864893 
-0.0367185 0.0813943 0.864893 
-0.0352402 0.0813943 0.864893 
-0.0337619 0.0813943 0.864893 
-0.0322011 0.0811865 0.862685 
-0.0307266 0.0811865 0.862685 
-0.0292521 0.0811865 0.862685 
-0.0277775 0.0811865 0.862685 
-0.026103 0.0805693 0.856127 
-0.0245774 0.0803657 0.853964 
-0.0231178 0.0803657 0.853964 
-0.0216581 0.0803657 0.853964 
-0.0201985 0.0803657 0.853964 
-0.0187389 0.0803657 0.853964 
-0.0172792 0.0803657 0.853964 
-0.0158196 0.0803657 0.853964 
-0.0143599 0.0803657 0.853964 
-0.0129003 0.0803657 0.853964 
-0.0114118 0.0801631 0.851811 
-0.00995585 0.0801631 0.851811 
-0.00849989 0.0801631 0.851811 
-0.00702622 0.0799615 0.849669 
-0.00555994 0.0797609 0.847537 
-0.00411129 0.0797609 0.847537 
-0.00266263 0.0797609 0.847537 
-0.00121398 0.0797609 0.847537 
0.000234679 0.0797609 0.847537 
0.00167912 0.0795613 0.845417 
0.00312415 0.0795613 0.845417 
0.00456918 0.0795613 0.845417 
0.00601421 0.0795613 0.845417 
0.00747795 0.0797609 0.847537 
0.00892661 0.0797609 0.847537 
0.0104014 0.0799615 0.849669 
0.0118537 0.0799615 0.849669 
0.013306 0.0799615 0.849669 
0.0147955 0.0801631 0.851811 
0.0162514 0.0801631 0.851811 
0.0177074 0.0801631 0.851811 
0.0191151 0.0799615 0.849669 
0.0205674 0.0799615 0.849669 
0.0220197 0.0799615 0.849669 
0.0235312 0.0801631 0.851811 
0.0249872 0.0801631 0.851811 
0.0264431 0.0801631 0.851811 
0.0278991 0.0801631 0.851811 
0.0294292 0.0803657 0.853964 
0.0308889 0.0803657 0.853964 
0.0323485 0.0803657 0.853964 
0.0338082 0.0803657 0.853964 
0.0353572 0.0805693 0.856127 
0.0368205 0.0805693 0.856127 
0.0382838 0.0805693 0.856127 
0.0397472 0.0805693 0.856127 
0.0413152 0.080774 0.858302 
0.0427823 0.080774 0.858302 
0.044362 0.0809797 0.860488 
0.0458328 0.0809797 0.860488 
0.0474244 0.0811865 0.862685 
0.0490241 0.0813943 0.864893 
0.050632 0.0816032 0.867113 
0.0521141 0.0816032 0.867113 
0.0537341 0.0818131 0.869344 
0.0553625 0.0820242 0.871587 
0.0568523 0.0820242 0.871587 
0.0584929 0.0822363 0.873841 
0.0601421 0.0824495 0.876107 
0.0616396 0.0824495 0.876107 
0.0633012 0.0826639 0.878384 
0.0649715 0.0828793 0.880674 
0.0666505 0.0830959 0.882975 
0.0683383 0.0833137 0.885289 
0.0698515 0.0833137 0.885289 
0.0715521 0.0835325 0.887614 
0.0730693 0.0835325 0.887614 
0.0747829 0.0837525 0.889952 
0.0765056 0.0839737 0.892302 
0.0782374 0.0841961 0.894665 
0.0799783 0.0844196 0.89704 
0.0817286 0.0846443 0.899428 
0.0830449 0.0844196 0.89704 
0.0848033 0.0846443 0.899428 
0.0870357 0.0853257 0.906669 
0.0890634 0.0857861 0.911561 
0.0908667 0.0860182 0.914027 
0.092429 0.0860182 0.914027 
0.0945026 0.0864861 0.918999 
0.0963354 0.086722 0.921506 
0.0981782 0.0869592 0.924026 
0.0997576 0.0869592 0.924026 
0.101337 0.0869592 0.924026 
0.103199 0.0871976 0.92656 
0.105071 0.0874374 0.929108 
0.106659 0.0874374 0.929108 
0.108247 0.0874374 0.929108 
0.109835 0.0874374 0.929108 
0.11173 0.0876785 0.931669 
0.113636 0.0879209 0.934246 
0.115233 0.0879209 0.934246 
0.11683 0.0879209 0.934246 
0.118426 0.0879209 0.934246 
0.120356 0.0881647 0.936836 
0.121957 0.0881647 0.936836 
0.123559 0.0881647 0.936836 
0.12516 0.0881647 0.936836 
0.126761 0.0881647 0.936836 
0.128363 0.0881647 0.936836 
0.130325 0.0884099 0.939441 
0.131931 0.0884099 0.939441 
0.133537 0.0884099 0.939441 
0.135519 0.0886564 0.94206 
0.137129 0.0886564 0.94206 
0.13874 0.0886564 0.94206 
0.140742 0.0889042 0.944694 
0.142357 0.0889042 0.944694 
0.144375 0.0891535 0.947343 
0.145995 0.0891535 0.947343 
0.147614 0.0891535 0.947343 
0.149233 0.0891535 0.947343 
0.150852 0.0891535 0.947343 
0.152472 0.0891535 0.947343 
0.154091 0.0891535 0.947343 
0.15571 0.0891535 0.947343 
0.157329 0.0891535 0.947343 
0.158949 0.0891535 0.947343 
0.160568 0.0891535 0.947343 
0.162187 0.0891535 0.947343 
0.163806 0.0891535 0.947343 
0.165426 0.0891535 0.947343 
0.166578 0.0889042 0.944694 
0.168193 0.0889042 0.944694 
0.169334 0.0886564 0.94206 
0.170944 0.0886564 0.94206 
0.172554 0.0886564 0.94206 
0.174651 0.0889042 0.944694 
0.176266 0.0889042 0.944694 
0.177881 0.0889042 0.944694 
0.179496 0.0889042 0.944694 
0.18111 0.0889042 0.944694 
0.182725 0.0889042 0.944694 
0.18434 0.0889042 0.944694 
0.186476 0.0891535 0.947343 
0.188095 0.0891535 0.947343 
0.189714 0.0891535 0.947343 
0.191334 0.0891535 0.947343 
0.192953 0.0891535 0.947343 
0.194572 0.0891535 0.947343 
0.196191 0.0891535 0.947343 
0.197811 0.0891535 0.947343 
0.19943 0.0891535 0.947343 
0.201049 0.0891535 0.947343 
0.202668 0.0891535 0.947343 
0.20544 0.0896563 0.952685 
0.207068 0.0896563 0.952685 
0.208696 0.0896563 0.952685 
0.210325 0.0896563 0.952685 
0.211953 0.0896563 0.952685 
0.213581 0.0896563 0.952685 
0.21521 0.0896563 0.952685 
0.216838 0.0896563 0.952685 
0.218467 0.0896563 0.952685 
0.220095 0.0896563 0.952685 
0.221723 0.0896563 0.952685 
0.223352 0.0896563 0.952685 
0.22498 0.0896563 0.952685 
0.226608 0.0896563 0.952685 
0.228882 0.0899098 0.955379 
0.230515 0.0899098 0.955379 
0.232148 0.0899098 0.955379 
0.233781 0.0899098 0.955379 
0.235414 0.0899098 0.955379 
0.237047 0.0899098 0.955379 
0.23868 0.0899098 0.955379 
0.240313 0.0899098 0.955379 
0.241946 0.0899098 0.955379 
0.243579 0.0899098 0.955379 
0.246607 0.0904211 0.960812 
0.248249 0.0904211 0.960812 
0.249891 0.0904211 0.960812 
0.252251 0.090679 0.963552 
0.253898 0.090679 0.963552 
0.255545 0.090679 0.963552 
0.257192 0.090679 0.963552 
0.258839 0.090679 0.963552 
0.260486 0.090679 0.963552 
0.262882 0.0909383 0.966308 
0.264534 0.0909383 0.966308 
0.266186 0.0909383 0.966308 
0.268605 0.0911991 0.96908 
0.270262 0.0911991 0.96908 
0.271918 0.0911991 0.96908 
0.275153 0.0917253 0.974671 
0.276819 0.0917253 0.974671 
0.278485 0.0917253 0.974671 
0.280961 0.0919907 0.97749 
0.282632 0.0919907 0.97749 
0.284303 0.0919907 0.97749 
0.285974 0.0919907 0.97749 
0.287644 0.0919907 0.97749 
0.289315 0.0919907 0.97749 
0.290147 0.0917253 0.974671 
0.291813 0.0917253 0.974671 
0.293478 0.0917253 0.974671 
0.295144 0.0917253 0.974671 
0.29681 0.0917253 0.974671 
0.298476 0.0917253 0.974671 
0.300142 0.0917253 0.974671 
0.301808 0.0917253 0.974671 
0.303474 0.0917253 0.974671 
0.30514 0.0917253 0.974671 
0.306806 0.0917253 0.974671 
-0.34814 0.0875805 0.914027 
-0.346578 0.0875805 0.914027 
-0.344085 0.0873442 0.911561 
-0.342527 0.0873442 0.911561 
-0.340969 0.0873442 0.911561 
-0.339411 0.0873442 0.911561 
-0.336944 0.0871092 0.909108 
-0.33539 0.0871092 0.909108 
-0.333836 0.0871092 0.909108 
-0.332282 0.0871092 0.909108 
-0.329841 0.0868755 0.906669 
-0.328291 0.0868755 0.906669 
-0.325867 0.086643 0.904242 
-0.324321 0.086643 0.904242 
-0.322776 0.086643 0.904242 
-0.32123 0.086643 0.904242 
-0.319684 0.086643 0.904242 
-0.318139 0.086643 0.904242 
-0.316593 0.086643 0.904242 
-0.315048 0.086643 0.904242 
-0.312665 0.0864117 0.901829 
-0.311957 0.086643 0.904242 
-0.310411 0.086643 0.904242 
-0.308865 0.086643 0.904242 
-0.30732 0.086643 0.904242 
-0.304958 0.0864117 0.901829 
-0.303417 0.0864117 0.901829 
-0.301072 0.0861817 0.899428 
-0.299534 0.0861817 0.899428 
-0.297206 0.0859529 0.89704 
-0.295672 0.0859529 0.89704 
-0.294139 0.0859529 0.89704 
-0.291831 0.0857253 0.894665 
-0.290302 0.0857253 0.894665 
-0.28801 0.0854989 0.892302 
-0.286485 0.0854989 0.892302 
-0.28496 0.0854989 0.892302 
-0.283435 0.0854989 0.892302 
-0.281909 0.0854989 0.892302 
