ply
format ascii 1.0
comment VCGLIB generated
element vertex 1008
property float x
property float y
property float z
element face 0
property list uchar int vertex_indices
end_header
-0.290416 -0.0360337 0.960812 
-0.289597 -0.0344895 0.963552 
-0.286317 -0.0342939 0.958088 
-0.28468 -0.0342939 0.958088 
-0.288774 -0.0327492 0.960812 
-0.286317 -0.0326563 0.958088 
-0.283875 -0.032564 0.955379 
-0.292868 -0.0310187 0.958088 
-0.29123 -0.0310187 0.958088 
-0.289592 -0.0310187 0.958088 
-0.288774 -0.0311069 0.960812 
-0.285508 -0.030931 0.955379 
-0.283074 -0.0308438 0.952685 
-0.280654 -0.0307571 0.950006 
-0.279031 -0.0307571 0.950006 
-0.278189 -0.0308438 0.952685 
-0.277343 -0.030931 0.955379 
-0.294505 -0.0293811 0.958088 
-0.292868 -0.0293811 0.958088 
-0.29123 -0.0293811 0.958088 
-0.288774 -0.029298 0.955379 
-0.287955 -0.0293811 0.958088 
-0.285508 -0.029298 0.955379 
-0.283074 -0.0292154 0.952685 
-0.280654 -0.0291333 0.950006 
-0.279031 -0.0291333 0.950006 
-0.278189 -0.0292154 0.952685 
-0.277343 -0.029298 0.955379 
-0.27571 -0.029298 0.955379 
-0.274077 -0.029298 0.955379 
-0.273216 -0.0293811 0.958088 
-0.271579 -0.0293811 0.958088 
-0.270709 -0.0294647 0.960812 
-0.29204 -0.027665 0.955379 
-0.290407 -0.027665 0.955379 
-0.289592 -0.0277435 0.958088 
-0.287955 -0.0277435 0.958088 
-0.285508 -0.027665 0.955379 
-0.283875 -0.027665 0.955379 
-0.281446 -0.027587 0.952685 
-0.279817 -0.027587 0.952685 
-0.278976 -0.027665 0.955379 
-0.277343 -0.027665 0.955379 
-0.27571 -0.027665 0.955379 
-0.274077 -0.027665 0.955379 
-0.272444 -0.027665 0.955379 
-0.271579 -0.0277435 0.958088 
-0.269941 -0.0277435 0.958088 
-0.268303 -0.0277435 0.958088 
-0.266666 -0.0277435 0.958088 
-0.29204 -0.0260321 0.955379 
-0.290407 -0.0260321 0.955379 
-0.288774 -0.0260321 0.955379 
-0.287955 -0.0261059 0.958088 
-0.285508 -0.0260321 0.955379 
-0.283875 -0.0260321 0.955379 
-0.282242 -0.0260321 0.955379 
-0.280609 -0.0260321 0.955379 
-0.278976 -0.0260321 0.955379 
-0.277343 -0.0260321 0.955379 
-0.276491 -0.0261059 0.958088 
-0.274077 -0.0260321 0.955379 
-0.272444 -0.0260321 0.955379 
-0.271579 -0.0261059 0.958088 
-0.270709 -0.0261801 0.960812 
-0.268303 -0.0261059 0.958088 
-0.266666 -0.0261059 0.958088 
-0.265028 -0.0261059 0.958088 
-0.263391 -0.0261059 0.958088 
-0.262497 -0.0261801 0.960812 
-0.291216 -0.0243303 0.952685 
-0.283875 -0.0243991 0.955379 
-0.282242 -0.0243991 0.955379 
-0.280609 -0.0243991 0.955379 
-0.279767 -0.0244683 0.958088 
-0.278129 -0.0244683 0.958088 
-0.276491 -0.0244683 0.958088 
-0.274077 -0.0243991 0.955379 
-0.272444 -0.0243991 0.955379 
-0.271579 -0.0244683 0.958088 
-0.269941 -0.0244683 0.958088 
-0.268303 -0.0244683 0.958088 
-0.265912 -0.0243991 0.955379 
-0.264279 -0.0243991 0.955379 
-0.262646 -0.0243991 0.955379 
-0.261753 -0.0244683 0.958088 
-0.260115 -0.0244683 0.958088 
-0.258478 -0.0244683 0.958088 
-0.25684 -0.0244683 0.958088 
-0.283875 -0.0227661 0.955379 
-0.282242 -0.0227661 0.955379 
-0.280609 -0.0227661 0.955379 
-0.279767 -0.0228306 0.958088 
-0.278129 -0.0228306 0.958088 
-0.27571 -0.0227661 0.955379 
-0.274077 -0.0227661 0.955379 
-0.272444 -0.0227661 0.955379 
-0.270811 -0.0227661 0.955379 
-0.269178 -0.0227661 0.955379 
-0.268303 -0.0228306 0.958088 
-0.265912 -0.0227661 0.955379 
-0.263534 -0.0227019 0.952685 
-0.262646 -0.0227661 0.955379 
-0.261013 -0.0227661 0.955379 
-0.25938 -0.0227661 0.955379 
-0.257747 -0.0227661 0.955379 
-0.256114 -0.0227661 0.955379 
-0.254481 -0.0227661 0.955379 
-0.252848 -0.0227661 0.955379 
-0.251927 -0.0228306 0.958088 
-0.27571 -0.0211331 0.955379 
-0.274077 -0.0211331 0.955379 
-0.272444 -0.0211331 0.955379 
-0.270811 -0.0211331 0.955379 
-0.268419 -0.0210735 0.952685 
-0.267545 -0.0211331 0.955379 
-0.264416 -0.0210143 0.950006 
-0.262793 -0.0210143 0.950006 
-0.261905 -0.0210735 0.952685 
-0.260277 -0.0210735 0.952685 
-0.258649 -0.0210735 0.952685 
-0.257747 -0.0211331 0.955379 
-0.255392 -0.0210735 0.952685 
-0.253763 -0.0210735 0.952685 
-0.252848 -0.0211331 0.955379 
-0.251215 -0.0211331 0.955379 
-0.249582 -0.0211331 0.955379 
-0.274077 -0.0195001 0.955379 
-0.271676 -0.0194451 0.952685 
-0.270047 -0.0194451 0.952685 
-0.268419 -0.0194451 0.952685 
-0.26679 -0.0194451 0.952685 
-0.264416 -0.0193905 0.950006 
-0.262793 -0.0193905 0.950006 
-0.261169 -0.0193905 0.950006 
-0.259545 -0.0193905 0.950006 
-0.257921 -0.0193905 0.950006 
-0.255579 -0.0193361 0.947343 
-0.254674 -0.0193905 0.950006 
-0.25305 -0.0193905 0.950006 
-0.252135 -0.0194451 0.952685 
-0.250507 -0.0194451 0.952685 
-0.249582 -0.0195001 0.955379 
-0.247949 -0.0195001 0.955379 
-0.246316 -0.0195001 0.955379 
-0.244683 -0.0195001 0.955379 
-0.273304 -0.0178168 0.952685 
-0.271676 -0.0178168 0.952685 
-0.269288 -0.0177667 0.950006 
-0.267664 -0.0177667 0.950006 
-0.26604 -0.0177667 0.950006 
-0.263675 -0.0177169 0.947343 
-0.262056 -0.0177169 0.947343 
-0.260437 -0.0177169 0.947343 
-0.258817 -0.0177169 0.947343 
-0.257198 -0.0177169 0.947343 
-0.255579 -0.0177169 0.947343 
-0.25396 -0.0177169 0.947343 
-0.25234 -0.0177169 0.947343 
-0.252135 -0.0178168 0.952685 
-0.249802 -0.0177667 0.950006 
-0.249582 -0.0178671 0.955379 
-0.247949 -0.0178671 0.955379 
-0.246316 -0.0178671 0.955379 
-0.243993 -0.0178168 0.952685 
-0.242365 -0.0178168 0.952685 
-0.240736 -0.0178168 0.952685 
-0.269288 -0.0161429 0.950006 
-0.267664 -0.0161429 0.950006 
-0.265294 -0.0160976 0.947343 
-0.263675 -0.0160976 0.947343 
-0.261323 -0.0160526 0.944694 
-0.259708 -0.0160526 0.944694 
-0.258817 -0.0160976 0.947343 
-0.256479 -0.0160526 0.944694 
-0.254864 -0.0160526 0.944694 
-0.25325 -0.0160526 0.944694 
-0.25234 -0.0160976 0.947343 
-0.251426 -0.0161429 0.950006 
-0.249802 -0.0161429 0.950006 
-0.248178 -0.0161429 0.950006 
-0.24725 -0.0161884 0.952685 
-0.245621 -0.0161884 0.952685 
-0.243307 -0.0161429 0.950006 
-0.241683 -0.0161429 0.950006 
-0.240059 -0.0161429 0.950006 
-0.238436 -0.0161429 0.950006 
-0.236812 -0.0161429 0.950006 
-0.270152 -0.0144784 0.947343 
-0.268533 -0.0144784 0.947343 
-0.266914 -0.0144784 0.947343 
-0.264553 -0.0144379 0.944694 
-0.262938 -0.0144379 0.944694 
-0.261323 -0.0144379 0.944694 
-0.260437 -0.0144784 0.947343 
-0.258817 -0.0144784 0.947343 
-0.257198 -0.0144784 0.947343 
-0.254864 -0.0144379 0.944694 
-0.25396 -0.0144784 0.947343 
-0.25234 -0.0144784 0.947343 
-0.250721 -0.0144784 0.947343 
-0.249802 -0.0145191 0.950006 
-0.248178 -0.0145191 0.950006 
-0.246555 -0.0145191 0.950006 
-0.244931 -0.0145191 0.950006 
-0.243307 -0.0145191 0.950006 
-0.241683 -0.0145191 0.950006 
-0.240059 -0.0145191 0.950006 
-0.238436 -0.0145191 0.950006 
-0.236812 -0.0145191 0.950006 
-0.234529 -0.0144784 0.947343 
-0.233564 -0.0145191 0.950006 
-0.23194 -0.0145191 0.950006 
-0.266417 -0.0126813 0.934246 
-0.265555 -0.0127165 0.936836 
-0.263953 -0.0127165 0.936836 
-0.264553 -0.0128232 0.944694 
-0.262938 -0.0128232 0.944694 
-0.261323 -0.0128232 0.944694 
-0.259708 -0.0128232 0.944694 
-0.258094 -0.0128232 0.944694 
-0.256479 -0.0128232 0.944694 
-0.254864 -0.0128232 0.944694 
-0.25325 -0.0128232 0.944694 
-0.25234 -0.0128591 0.947343 
-0.250721 -0.0128591 0.947343 
-0.249102 -0.0128591 0.947343 
-0.247483 -0.0128591 0.947343 
-0.245863 -0.0128591 0.947343 
-0.244244 -0.0128591 0.947343 
-0.242625 -0.0128591 0.947343 
-0.241006 -0.0128591 0.947343 
-0.239386 -0.0128591 0.947343 
-0.237767 -0.0128591 0.947343 
-0.236148 -0.0128591 0.947343 
-0.234529 -0.0128591 0.947343 
-0.232909 -0.0128591 0.947343 
-0.23129 -0.0128591 0.947343 
-0.230317 -0.0128953 0.950006 
-0.226081 -0.0129316 0.952685 
-0.268014 -0.0110845 0.934246 
-0.266417 -0.0110845 0.934246 
-0.265555 -0.0111152 0.936836 
-0.263953 -0.0111152 0.936836 
-0.262352 -0.0111152 0.936836 
-0.260751 -0.0111152 0.936836 
-0.25987 -0.0111461 0.939441 
-0.259708 -0.0112084 0.944694 
-0.258094 -0.0112084 0.944694 
-0.256479 -0.0112084 0.944694 
-0.254864 -0.0112084 0.944694 
-0.25325 -0.0112084 0.944694 
-0.25234 -0.0112399 0.947343 
-0.25002 -0.0112084 0.944694 
-0.248405 -0.0112084 0.944694 
-0.246791 -0.0112084 0.944694 
-0.245176 -0.0112084 0.944694 
-0.243561 -0.0112084 0.944694 
-0.241947 -0.0112084 0.944694 
-0.241006 -0.0112399 0.947343 
-0.238717 -0.0112084 0.944694 
-0.237767 -0.0112399 0.947343 
-0.235488 -0.0112084 0.944694 
-0.233873 -0.0112084 0.944694 
-0.232909 -0.0112399 0.947343 
-0.23129 -0.0112399 0.947343 
-0.229671 -0.0112399 0.947343 
-0.228052 -0.0112399 0.947343 
-0.226432 -0.0112399 0.947343 
-0.224813 -0.0112399 0.947343 
-0.224453 -0.0113032 0.952685 
-0.223454 -0.0113352 0.955379 
-0.221821 -0.0113352 0.955379 
-0.220813 -0.0113673 0.958088 
-0.219175 -0.0113673 0.958088 
-0.269611 -0.0094876 0.934246 
-0.268014 -0.0094876 0.934246 
-0.266417 -0.0094876 0.934246 
-0.26482 -0.0094876 0.934246 
-0.263223 -0.0094876 0.934246 
-0.261627 -0.0094876 0.934246 
-0.260751 -0.00951391 0.936836 
-0.259149 -0.00951391 0.936836 
-0.258264 -0.00954036 0.939441 
-0.257374 -0.00956696 0.94206 
-0.256479 -0.00959371 0.944694 
-0.254864 -0.00959371 0.944694 
-0.252543 -0.00956696 0.94206 
-0.251635 -0.00959371 0.944694 
-0.25002 -0.00959371 0.944694 
-0.248405 -0.00959371 0.944694 
-0.246103 -0.00956696 0.94206 
-0.244492 -0.00956696 0.94206 
-0.242882 -0.00956696 0.94206 
-0.241272 -0.00956696 0.94206 
-0.240332 -0.00959371 0.944694 
-0.238051 -0.00956696 0.94206 
-0.236441 -0.00956696 0.94206 
-0.235488 -0.00959371 0.944694 
-0.233221 -0.00956696 0.94206 
-0.232258 -0.00959371 0.944694 
-0.230643 -0.00959371 0.944694 
-0.229029 -0.00959371 0.944694 
-0.228052 -0.00962061 0.947343 
-0.226432 -0.00962061 0.947343 
-0.224813 -0.00962061 0.947343 
-0.223194 -0.00962061 0.947343 
-0.222198 -0.00964766 0.950006 
-0.221821 -0.00970222 0.955379 
-0.220188 -0.00970222 0.955379 
-0.219175 -0.00972973 0.958088 
-0.216922 -0.00970222 0.955379 
-0.269611 -0.00789074 0.934246 
-0.268014 -0.00789074 0.934246 
-0.265683 -0.00786899 0.931669 
-0.26409 -0.00786899 0.931669 
-0.263223 -0.00789074 0.934246 
-0.261627 -0.00789074 0.934246 
-0.26003 -0.00789074 0.934246 
-0.259149 -0.00791262 0.936836 
-0.257548 -0.00791262 0.936836 
-0.256658 -0.00793462 0.939441 
-0.255764 -0.00795675 0.94206 
-0.254154 -0.00795675 0.94206 
-0.251841 -0.00793462 0.939441 
-0.251635 -0.00797899 0.944694 
-0.25002 -0.00797899 0.944694 
-0.248405 -0.00797899 0.944694 
-0.246103 -0.00795675 0.94206 
-0.244492 -0.00795675 0.94206 
-0.242882 -0.00795675 0.94206 
-0.241272 -0.00795675 0.94206 
-0.239662 -0.00795675 0.94206 
-0.23739 -0.00793462 0.939441 
-0.235784 -0.00793462 0.939441 
-0.234831 -0.00795675 0.94206 
-0.233221 -0.00795675 0.94206 
-0.232258 -0.00797899 0.944694 
-0.230643 -0.00797899 0.944694 
-0.229029 -0.00797899 0.944694 
-0.227414 -0.00797899 0.944694 
-0.226432 -0.00800136 0.947343 
-0.224813 -0.00800136 0.947343 
-0.223194 -0.00800136 0.947343 
-0.221575 -0.00800136 0.947343 
-0.219955 -0.00800136 0.947343 
-0.220188 -0.00806924 0.955379 
-0.218555 -0.00806924 0.955379 
-0.216311 -0.00804648 0.952685 
-0.214079 -0.00802386 0.950006 
-0.269611 -0.00629388 0.934246 
-0.268014 -0.00629388 0.934246 
-0.265683 -0.00627653 0.931669 
-0.26409 -0.00627653 0.931669 
-0.263223 -0.00629388 0.934246 
-0.261627 -0.00629388 0.934246 
-0.260751 -0.00631133 0.936836 
-0.259149 -0.00631133 0.936836 
-0.257548 -0.00631133 0.936836 
-0.256658 -0.00632888 0.939441 
-0.255764 -0.00634653 0.94206 
-0.254154 -0.00634653 0.94206 
-0.251841 -0.00632888 0.939441 
-0.25002 -0.00636427 0.944694 
-0.248405 -0.00636427 0.944694 
-0.246103 -0.00634653 0.94206 
-0.244492 -0.00634653 0.94206 
-0.242207 -0.00632888 0.939441 
-0.240601 -0.00632888 0.939441 
-0.238995 -0.00632888 0.939441 
-0.23739 -0.00632888 0.939441 
-0.235784 -0.00632888 0.939441 
-0.234178 -0.00632888 0.939441 
-0.232572 -0.00632888 0.939441 
-0.231611 -0.00634653 0.94206 
-0.23 -0.00634653 0.94206 
-0.22839 -0.00634653 0.94206 
-0.227414 -0.00636427 0.944694 
-0.225799 -0.00636427 0.944694 
-0.224185 -0.00636427 0.944694 
-0.22257 -0.00636427 0.944694 
-0.221575 -0.00638212 0.947343 
-0.219955 -0.00638212 0.947343 
-0.218336 -0.00638212 0.947343 
-0.218555 -0.00643625 0.955379 
-0.215702 -0.00640006 0.950006 
-0.213478 -0.00638212 0.947343 
-0.211859 -0.00638212 0.947343 
-0.21024 -0.00638212 0.947343 
-0.267275 -0.00468407 0.931669 
-0.265683 -0.00468407 0.931669 
-0.26409 -0.00468407 0.931669 
-0.262498 -0.00468407 0.931669 
-0.261627 -0.00469702 0.934246 
-0.255947 -0.00471004 0.936836 
-0.254154 -0.00473631 0.94206 
-0.251841 -0.00472314 0.939441 
-0.25002 -0.00474955 0.944694 
-0.247713 -0.00473631 0.94206 
-0.245418 -0.00472314 0.939441 
-0.243813 -0.00472314 0.939441 
-0.242207 -0.00472314 0.939441 
-0.239934 -0.00471004 0.936836 
-0.238995 -0.00472314 0.939441 
-0.236731 -0.00471004 0.936836 
-0.23513 -0.00471004 0.936836 
-0.233529 -0.00471004 0.936836 
-0.232572 -0.00472314 0.939441 
-0.230967 -0.00472314 0.939441 
-0.229361 -0.00472314 0.939441 
-0.227755 -0.00472314 0.939441 
-0.22678 -0.00473631 0.94206 
-0.225799 -0.00474955 0.944694 
-0.224185 -0.00474955 0.944694 
-0.22257 -0.00474955 0.944694 
-0.220955 -0.00474955 0.944694 
-0.21934 -0.00474955 0.944694 
-0.218336 -0.00476287 0.947343 
-0.217326 -0.00477626 0.950006 
-0.215702 -0.00477626 0.950006 
-0.213478 -0.00476287 0.947343 
-0.211267 -0.00474955 0.944694 
-0.21024 -0.00476287 0.947343 
-0.208621 -0.00476287 0.947343 
-0.207001 -0.00476287 0.947343 
-0.205382 -0.00476287 0.947343 
-0.26409 -0.00309161 0.931669 
-0.262498 -0.00309161 0.931669 
-0.250449 -0.00310016 0.934246 
-0.24794 -0.00310875 0.936836 
-0.246339 -0.00310875 0.936836 
-0.245418 -0.0031174 0.939441 
-0.243813 -0.0031174 0.939441 
-0.241535 -0.00310875 0.936836 
-0.239934 -0.00310875 0.936836 
-0.238333 -0.00310875 0.936836 
-0.236731 -0.00310875 0.936836 
-0.23513 -0.00310875 0.936836 
-0.233529 -0.00310875 0.936836 
-0.231928 -0.00310875 0.936836 
-0.230967 -0.0031174 0.939441 
-0.228725 -0.00310875 0.936836 
-0.227124 -0.00310875 0.936836 
-0.226149 -0.0031174 0.939441 
-0.22517 -0.00312609 0.94206 
-0.22356 -0.00312609 0.94206 
-0.221949 -0.00312609 0.94206 
-0.220339 -0.00312609 0.94206 
-0.218729 -0.00312609 0.94206 
-0.217119 -0.00312609 0.94206 
-0.216717 -0.00314362 0.947343 
-0.214496 -0.00313483 0.944694 
-0.212882 -0.00313483 0.944694 
-0.210678 -0.00312609 0.94206 
-0.209652 -0.00313483 0.944694 
-0.208037 -0.00313483 0.944694 
-0.207001 -0.00314362 0.947343 
-0.204808 -0.00313483 0.944694 
-0.203193 -0.00313483 0.944694 
-0.263364 -0.00149503 0.929108 
-0.261058 -0.00149093 0.92656 
-0.249758 -0.00149915 0.931669 
-0.246804 -0.00149093 0.92656 
-0.245221 -0.00149093 0.92656 
-0.244981 -0.00149915 0.931669 
-0.244061 -0.0015033 0.934246 
-0.242464 -0.0015033 0.934246 
-0.241535 -0.00150747 0.936836 
-0.239934 -0.00150747 0.936836 
-0.238333 -0.00150747 0.936836 
-0.236731 -0.00150747 0.936836 
-0.23513 -0.00150747 0.936836 
-0.233529 -0.00150747 0.936836 
-0.231928 -0.00150747 0.936836 
-0.230326 -0.00150747 0.936836 
-0.228725 -0.00150747 0.936836 
-0.227124 -0.00150747 0.936836 
-0.225522 -0.00150747 0.936836 
-0.223921 -0.00150747 0.936836 
-0.22356 -0.00151587 0.94206 
-0.221949 -0.00151587 0.94206 
-0.219726 -0.00151166 0.939441 
-0.218121 -0.00151166 0.939441 
-0.216515 -0.00151166 0.939441 
-0.215508 -0.00151587 0.94206 
-0.213898 -0.00151587 0.94206 
-0.212288 -0.00151587 0.94206 
-0.210678 -0.00151587 0.94206 
-0.209068 -0.00151587 0.94206 
-0.207457 -0.00151587 0.94206 
-0.206423 -0.00152011 0.944694 
-0.204237 -0.00151587 0.94206 
-0.202627 -0.00151587 0.94206 
-0.201016 -0.00151587 0.94206 
-0.199964 -0.00152011 0.944694 
-0.198349 -0.00152011 0.944694 
-0.261058 9.2795e-05 0.92656 
-0.249071 9.30501e-05 0.929108 
-0.246804 9.2795e-05 0.92656 
-0.24455 9.25412e-05 0.924026 
-0.244307 9.30501e-05 0.929108 
-0.242719 9.30501e-05 0.929108 
-0.241796 9.33067e-05 0.931669 
-0.240867 9.35647e-05 0.934246 
-0.239934 9.38241e-05 0.936836 
-0.238333 9.38241e-05 0.936836 
-0.236731 9.38241e-05 0.936836 
-0.23448 9.35647e-05 0.934246 
-0.232883 9.35647e-05 0.934246 
-0.231928 9.38241e-05 0.936836 
-0.230326 9.38241e-05 0.936836 
-0.228725 9.38241e-05 0.936836 
-0.226496 9.35647e-05 0.934246 
-0.225522 9.38241e-05 0.936836 
-0.223921 9.38241e-05 0.936836 
-0.222938 9.4085e-05 0.939441 
-0.221332 9.4085e-05 0.939441 
-0.219726 9.4085e-05 0.939441 
-0.217516 9.38241e-05 0.936836 
-0.216515 9.4085e-05 0.939441 
-0.215508 9.43473e-05 0.94206 
-0.213303 9.4085e-05 0.939441 
-0.211111 9.38241e-05 0.936836 
-0.209509 9.38241e-05 0.936836 
-0.208486 9.4085e-05 0.939441 
-0.206881 9.4085e-05 0.939441 
-0.205275 9.4085e-05 0.939441 
-0.203669 9.4085e-05 0.939441 
-0.202063 9.4085e-05 0.939441 
-0.200458 9.4085e-05 0.939441 
-0.199406 9.43473e-05 0.94206 
-0.197246 9.4085e-05 0.939441 
-0.196186 9.43473e-05 0.94206 
-0.194576 9.43473e-05 0.94206 
-0.193505 9.46111e-05 0.944694 
-0.248388 0.00167652 0.92656 
-0.246129 0.00167193 0.924026 
-0.243883 0.00166737 0.921506 
-0.242971 0.00167193 0.924026 
-0.242053 0.00167652 0.92656 
-0.24047 0.00167652 0.92656 
-0.240203 0.00168577 0.931669 
-0.239271 0.00169043 0.934246 
-0.237674 0.00169043 0.934246 
-0.236077 0.00169043 0.934246 
-0.23448 0.00169043 0.934246 
-0.232883 0.00169043 0.934246 
-0.231928 0.00169511 0.936836 
-0.230326 0.00169511 0.936836 
-0.228093 0.00169043 0.934246 
-0.227124 0.00169511 0.936836 
-0.225522 0.00169511 0.936836 
-0.223921 0.00169511 0.936836 
-0.222938 0.00169983 0.939441 
-0.220719 0.00169511 0.936836 
-0.219117 0.00169511 0.936836 
-0.217516 0.00169511 0.936836 
-0.215915 0.00169511 0.936836 
-0.214313 0.00169511 0.936836 
-0.212712 0.00169511 0.936836 
-0.211111 0.00169511 0.936836 
-0.20893 0.00169043 0.934246 
-0.207908 0.00169511 0.936836 
-0.206307 0.00169511 0.936836 
-0.204706 0.00169511 0.936836 
-0.203104 0.00169511 0.936836 
-0.201503 0.00169511 0.936836 
-0.199902 0.00169511 0.936836 
-0.1983 0.00169511 0.936836 
-0.196699 0.00169511 0.936836 
-0.195098 0.00169511 0.936836 
-0.193497 0.00169511 0.936836 
-0.192429 0.00169983 0.939441 
-0.18919 0.00171412 0.947343 
-0.18757 0.00171412 0.947343 
-0.246361 0.00323364 0.918999 
-0.245458 0.00324246 0.921506 
-0.24322 0.00323364 0.918999 
-0.242971 0.00325133 0.924026 
-0.241391 0.00325133 0.924026 
-0.24047 0.00326024 0.92656 
-0.239543 0.00326921 0.929108 
-0.237955 0.00326921 0.929108 
-0.237018 0.00327822 0.931669 
-0.235426 0.00327822 0.931669 
-0.23319 0.00326921 0.929108 
-0.232241 0.00327822 0.931669 
-0.231286 0.00328729 0.934246 
-0.229689 0.00328729 0.934246 
-0.228093 0.00328729 0.934246 
-0.226496 0.00328729 0.934246 
-0.224899 0.00328729 0.934246 
-0.223921 0.0032964 0.936836 
-0.22232 0.0032964 0.936836 
-0.220719 0.0032964 0.936836 
-0.218511 0.00328729 0.934246 
-0.216914 0.00328729 0.934246 
-0.215318 0.00328729 0.934246 
-0.213131 0.00327822 0.931669 
-0.211539 0.00327822 0.931669 
-0.209947 0.00327822 0.931669 
-0.208354 0.00327822 0.931669 
-0.207333 0.00328729 0.934246 
-0.205736 0.00328729 0.934246 
-0.20414 0.00328729 0.934246 
-0.202543 0.00328729 0.934246 
-0.201503 0.0032964 0.936836 
-0.199349 0.00328729 0.934246 
-0.197752 0.00328729 0.934246 
-0.196155 0.00328729 0.934246 
-0.194558 0.00328729 0.934246 
-0.192962 0.00328729 0.934246 
-0.191365 0.00328729 0.934246 
-0.189768 0.00328729 0.934246 
-0.188171 0.00328729 0.934246 
-0.18606 0.00327822 0.931669 
-0.246361 0.00480444 0.918999 
-0.244791 0.00480444 0.918999 
-0.24322 0.00480444 0.918999 
-0.241649 0.00480444 0.918999 
-0.240078 0.00480444 0.918999 
-0.24047 0.00484397 0.92656 
-0.238233 0.00483072 0.924026 
-0.236653 0.00483072 0.924026 
-0.235718 0.00484397 0.92656 
-0.234778 0.00485729 0.929108 
-0.232551 0.00484397 0.92656 
-0.230967 0.00484397 0.92656 
-0.230648 0.00487068 0.931669 
-0.229689 0.00488415 0.934246 
-0.228093 0.00488415 0.934246 
-0.226496 0.00488415 0.934246 
-0.224899 0.00488415 0.934246 
-0.223302 0.00488415 0.934246 
-0.221705 0.00488415 0.934246 
-0.220108 0.00488415 0.934246 
-0.217909 0.00487068 0.931669 
-0.216316 0.00487068 0.931669 
-0.214133 0.00485729 0.929108 
-0.212545 0.00485729 0.929108 
-0.210957 0.00485729 0.929108 
-0.209369 0.00485729 0.929108 
-0.207211 0.00484397 0.92656 
-0.206193 0.00485729 0.929108 
-0.204605 0.00485729 0.929108 
-0.203577 0.00487068 0.931669 
-0.201429 0.00485729 0.929108 
-0.200392 0.00487068 0.931669 
-0.198799 0.00487068 0.931669 
-0.196665 0.00485729 0.929108 
-0.195614 0.00487068 0.931669 
-0.193488 0.00485729 0.929108 
-0.192429 0.00487068 0.931669 
-0.190312 0.00485729 0.929108 
-0.189245 0.00487068 0.931669 
-0.187652 0.00487068 0.931669 
-0.18606 0.00487068 0.931669 
-0.253334 0.00639263 0.921506 
-0.251074 0.00637524 0.918999 
-0.249503 0.00637524 0.918999 
-0.24726 0.00635795 0.916506 
-0.246361 0.00637524 0.918999 
-0.244791 0.00637524 0.918999 
-0.24322 0.00637524 0.918999 
-0.240994 0.00635795 0.916506 
-0.239427 0.00635795 0.916506 
-0.238507 0.00637524 0.918999 
-0.236937 0.00637524 0.918999 
-0.235366 0.00637524 0.918999 
-0.233795 0.00637524 0.918999 
-0.232224 0.00637524 0.918999 
-0.231282 0.00639263 0.921506 
-0.230336 0.00641011 0.924026 
-0.229383 0.00642769 0.92656 
-0.2278 0.00642769 0.92656 
-0.226838 0.00644537 0.929108 
-0.225871 0.00646314 0.931669 
-0.224279 0.00646314 0.931669 
-0.223302 0.00648101 0.934246 
-0.221705 0.00648101 0.934246 
-0.220108 0.00648101 0.934246 
-0.217909 0.00646314 0.931669 
-0.215722 0.00644537 0.929108 
-0.213546 0.00642769 0.92656 
-0.211963 0.00642769 0.92656 
-0.210379 0.00642769 0.92656 
-0.208795 0.00642769 0.92656 
-0.207211 0.00642769 0.92656 
-0.205628 0.00642769 0.92656 
-0.204044 0.00642769 0.92656 
-0.203017 0.00644537 0.929108 
-0.201429 0.00644537 0.929108 
-0.199841 0.00644537 0.929108 
-0.198253 0.00644537 0.929108 
-0.196125 0.00642769 0.92656 
-0.195614 0.00646314 0.931669 
-0.193488 0.00644537 0.929108 
-0.192429 0.00646314 0.931669 
-0.190312 0.00644537 0.929108 
-0.189245 0.00646314 0.931669 
-0.187652 0.00646314 0.931669 
-0.251074 0.00794605 0.918999 
-0.249503 0.00794605 0.918999 
-0.247932 0.00794605 0.918999 
-0.246361 0.00794605 0.918999 
-0.244791 0.00794605 0.918999 
-0.24322 0.00794605 0.918999 
-0.241649 0.00794605 0.918999 
-0.239427 0.00792449 0.916506 
-0.238507 0.00794605 0.918999 
-0.236294 0.00792449 0.916506 
-0.234727 0.00792449 0.916506 
-0.233161 0.00792449 0.916506 
-0.231594 0.00792449 0.916506 
-0.230653 0.00794605 0.918999 
-0.229707 0.00796772 0.921506 
-0.228756 0.00798951 0.924026 
-0.226557 0.00796772 0.921506 
-0.225597 0.00798951 0.924026 
-0.225871 0.0080556 0.931669 
-0.224279 0.0080556 0.931669 
-0.222686 0.0080556 0.931669 
-0.221094 0.0080556 0.931669 
-0.218898 0.00803345 0.929108 
-0.216714 0.00801142 0.92656 
-0.21513 0.00801142 0.92656 
-0.212962 0.00798951 0.924026 
-0.211383 0.00798951 0.924026 
-0.209803 0.00798951 0.924026 
-0.208224 0.00798951 0.924026 
-0.206081 0.00796772 0.921506 
-0.204506 0.00796772 0.921506 
-0.202931 0.00796772 0.921506 
-0.201906 0.00798951 0.924026 
-0.200876 0.00801142 0.92656 
-0.199841 0.00803345 0.929108 
-0.197168 0.00798951 0.924026 
-0.196665 0.00803345 0.929108 
-0.195614 0.0080556 0.931669 
-0.193488 0.00803345 0.929108 
-0.1919 0.00803345 0.929108 
-0.190312 0.00803345 0.929108 
-0.247932 0.00951685 0.918999 
-0.246361 0.00951685 0.918999 
-0.244791 0.00951685 0.918999 
-0.24322 0.00951685 0.918999 
-0.240994 0.00949103 0.916506 
-0.239427 0.00949103 0.916506 
-0.23786 0.00949103 0.916506 
-0.236294 0.00949103 0.916506 
-0.234727 0.00949103 0.916506 
-0.233161 0.00949103 0.916506 
-0.231594 0.00949103 0.916506 
-0.230028 0.00949103 0.916506 
-0.228461 0.00949103 0.916506 
-0.226895 0.00949103 0.916506 
-0.225328 0.00949103 0.916506 
-0.22437 0.00951685 0.918999 
-0.222195 0.00949103 0.916506 
-0.220628 0.00949103 0.916506 
-0.220257 0.0095428 0.921506 
-0.218087 0.00951685 0.918999 
-0.217107 0.0095428 0.921506 
-0.216121 0.0095689 0.924026 
-0.214542 0.0095689 0.924026 
-0.212381 0.0095428 0.921506 
-0.210806 0.0095428 0.921506 
-0.209803 0.0095689 0.924026 
-0.207656 0.0095428 0.921506 
-0.205521 0.00951685 0.918999 
-0.204506 0.0095428 0.921506 
-0.202931 0.0095428 0.921506 
-0.201356 0.0095428 0.921506 
-0.199781 0.0095428 0.921506 
-0.198748 0.0095689 0.924026 
-0.197168 0.0095689 0.924026 
-0.195589 0.0095689 0.924026 
-0.195614 0.00964806 0.931669 
-0.193488 0.00962153 0.929108 
-0.192429 0.00964806 0.931669 
-0.244791 0.0110876 0.918999 
-0.24322 0.0110876 0.918999 
-0.240994 0.0110576 0.916506 
-0.239427 0.0110576 0.916506 
-0.23786 0.0110576 0.916506 
-0.236294 0.0110576 0.916506 
-0.234727 0.0110576 0.916506 
-0.23253 0.0110277 0.914027 
-0.230968 0.0110277 0.914027 
-0.229405 0.0110277 0.914027 
-0.227843 0.0110277 0.914027 
-0.226281 0.0110277 0.914027 
-0.224719 0.0110277 0.914027 
-0.223156 0.0110277 0.914027 
-0.221594 0.0110277 0.914027 
-0.219438 0.0109979 0.911561 
-0.21788 0.0109979 0.911561 
-0.216907 0.0110277 0.914027 
-0.215345 0.0110277 0.914027 
-0.214362 0.0110576 0.916506 
-0.213375 0.0110876 0.918999 
-0.211229 0.0110576 0.916506 
-0.210233 0.0110876 0.918999 
-0.208662 0.0110876 0.918999 
-0.207091 0.0110876 0.918999 
-0.204963 0.0110576 0.916506 
-0.20395 0.0110876 0.918999 
-0.202379 0.0110876 0.918999 
-0.201356 0.0111179 0.921506 
-0.199781 0.0111179 0.921506 
-0.198206 0.0111179 0.921506 
-0.197168 0.0111483 0.924026 
-0.195589 0.0111483 0.924026 
-0.194542 0.0111789 0.92656 
-0.240994 0.0126241 0.916506 
-0.239427 0.0126241 0.916506 
-0.237217 0.01259 0.914027 
-0.235655 0.01259 0.914027 
-0.234092 0.01259 0.914027 
-0.23253 0.01259 0.914027 
-0.230968 0.01259 0.914027 
-0.228787 0.012556 0.911561 
-0.227843 0.01259 0.914027 
-0.226281 0.01259 0.914027 
-0.224112 0.012556 0.911561 
-0.222554 0.012556 0.911561 
-0.220996 0.012556 0.911561 
-0.219438 0.012556 0.911561 
-0.21788 0.012556 0.911561 
-0.216907 0.01259 0.914027 
-0.215345 0.01259 0.914027 
-0.213782 0.01259 0.914027 
-0.212796 0.0126241 0.916506 
-0.211229 0.0126241 0.916506 
-0.209663 0.0126241 0.916506 
-0.208662 0.0126585 0.918999 
-0.20653 0.0126241 0.916506 
-0.204963 0.0126241 0.916506 
-0.203397 0.0126241 0.916506 
-0.202379 0.0126585 0.918999 
-0.200808 0.0126585 0.918999 
-0.199781 0.012693 0.921506 
-0.197667 0.0126585 0.918999 
-0.197168 0.0127277 0.924026 
-0.195589 0.0127277 0.924026 
-0.238779 0.0141523 0.914027 
-0.237217 0.0141523 0.914027 
-0.235655 0.0141523 0.914027 
-0.233461 0.0141141 0.911561 
-0.230658 0.0140383 0.906669 
-0.229108 0.0140383 0.906669 
-0.227559 0.0140383 0.906669 
-0.226009 0.0140383 0.906669 
-0.224459 0.0140383 0.906669 
-0.223509 0.0140761 0.909108 
-0.221955 0.0140761 0.909108 
-0.220401 0.0140761 0.909108 
-0.218848 0.0140761 0.909108 
-0.21788 0.0141141 0.911561 
-0.216322 0.0141141 0.911561 
-0.215345 0.0141523 0.914027 
-0.213782 0.0141523 0.914027 
-0.21222 0.0141523 0.914027 
-0.211229 0.0141907 0.916506 
-0.209663 0.0141907 0.916506 
-0.208096 0.0141907 0.916506 
-0.20653 0.0141907 0.916506 
-0.204963 0.0141907 0.916506 
-0.203397 0.0141907 0.916506 
-0.20183 0.0141907 0.916506 
-0.200263 0.0141907 0.916506 
-0.198697 0.0141907 0.916506 
-0.19713 0.0141907 0.916506 
-0.238779 0.0157146 0.914027 
-0.237217 0.0157146 0.914027 
-0.235655 0.0157146 0.914027 
-0.233461 0.0156722 0.911561 
-0.230658 0.0155881 0.906669 
-0.229108 0.0155881 0.906669 
-0.227559 0.0155881 0.906669 
-0.226009 0.0155881 0.906669 
-0.224459 0.0155881 0.906669 
-0.223509 0.01563 0.909108 
-0.221955 0.01563 0.909108 
-0.220401 0.01563 0.909108 
-0.219438 0.0156722 0.911561 
-0.21788 0.0156722 0.911561 
-0.216322 0.0156722 0.911561 
-0.214764 0.0156722 0.911561 
-0.213206 0.0156722 0.911561 
-0.21222 0.0157146 0.914027 
-0.210658 0.0157146 0.914027 
-0.209096 0.0157146 0.914027 
-0.207533 0.0157146 0.914027 
-0.20653 0.0157572 0.916506 
-0.204963 0.0157572 0.916506 
-0.203397 0.0157572 0.916506 
-0.20183 0.0157572 0.916506 
-0.200263 0.0157572 0.916506 
-0.198697 0.0157572 0.916506 
-0.235019 0.0172303 0.911561 
-0.232208 0.0171378 0.906669 
-0.230658 0.0171378 0.906669 
-0.229108 0.0171378 0.906669 
-0.22695 0.0170919 0.904242 
-0.226009 0.0171378 0.906669 
-0.224459 0.0171378 0.906669 
-0.22291 0.0171378 0.906669 
-0.22136 0.0171378 0.906669 
-0.21981 0.0171378 0.906669 
-0.218848 0.0171839 0.909108 
-0.217294 0.0171839 0.909108 
-0.21574 0.0171839 0.909108 
-0.214764 0.0172303 0.911561 
-0.213206 0.0172303 0.911561 
-0.211648 0.0172303 0.911561 
-0.210658 0.0172769 0.914027 
-0.209096 0.0172769 0.914027 
-0.207533 0.0172769 0.914027 
-0.20653 0.0173237 0.916506 
-0.204963 0.0173237 0.916506 
-0.203397 0.0173237 0.916506 
-0.20183 0.0173237 0.916506 
-0.200263 0.0173237 0.916506 
-0.232833 0.0187378 0.909108 
-0.230658 0.0186875 0.906669 
-0.229108 0.0186875 0.906669 
-0.22695 0.0186375 0.904242 
-0.225404 0.0186375 0.904242 
-0.224459 0.0186875 0.906669 
-0.22291 0.0186875 0.906669 
-0.22136 0.0186875 0.906669 
-0.21981 0.0186875 0.906669 
-0.21826 0.0186875 0.906669 
-0.217294 0.0187378 0.909108 
-0.21574 0.0187378 0.909108 
-0.214186 0.0187378 0.909108 
-0.212632 0.0187378 0.909108 
-0.211648 0.0187884 0.911561 
-0.210658 0.0188392 0.914027 
-0.209096 0.0188392 0.914027 
-0.207533 0.0188392 0.914027 
-0.20653 0.0188903 0.916506 
-0.204963 0.0188903 0.916506 
-0.203397 0.0188903 0.916506 
-0.229108 0.0202372 0.906669 
-0.227559 0.0202372 0.906669 
-0.226009 0.0202372 0.906669 
-0.224459 0.0202372 0.906669 
-0.22291 0.0202372 0.906669 
-0.22136 0.0202372 0.906669 
-0.220401 0.0202917 0.909108 
-0.218848 0.0202917 0.909108 
-0.217294 0.0202917 0.909108 
-0.21574 0.0202917 0.909108 
-0.214186 0.0202917 0.909108 
-0.212632 0.0202917 0.909108 
-0.211648 0.0203464 0.911561 
-0.210089 0.0203464 0.911561 
-0.209096 0.0204015 0.914027 
-0.207533 0.0204015 0.914027 
-0.20653 0.0204568 0.916506 
-0.204963 0.0204568 0.916506 
-0.232208 0.021787 0.906669 
-0.229108 0.021787 0.906669 
-0.227559 0.021787 0.906669 
-0.226009 0.021787 0.906669 
-0.224459 0.021787 0.906669 
-0.22291 0.021787 0.906669 
-0.22136 0.021787 0.906669 
-0.21981 0.021787 0.906669 
-0.218848 0.0218456 0.909108 
-0.217294 0.0218456 0.909108 
-0.21574 0.0218456 0.909108 
-0.214186 0.0218456 0.909108 
-0.212632 0.0218456 0.909108 
-0.211648 0.0219045 0.911561 
-0.210089 0.0219045 0.911561 
-0.208531 0.0219045 0.911561 
-0.207533 0.0219638 0.914027 
-0.227559 0.0233367 0.906669 
-0.226009 0.0233367 0.906669 
-0.224459 0.0233367 0.906669 
-0.22291 0.0233367 0.906669 
-0.22136 0.0233367 0.906669 
-0.21981 0.0233367 0.906669 
-0.218848 0.0233995 0.909108 
-0.217294 0.0233995 0.909108 
-0.21574 0.0233995 0.909108 
-0.214186 0.0233995 0.909108 
-0.212632 0.0233995 0.909108 
-0.211648 0.0234626 0.911561 
-0.210089 0.0234626 0.911561 
-0.208531 0.0234626 0.911561 
-0.22291 0.0248864 0.906669 
-0.220401 0.0249534 0.909108 
-0.218848 0.0249534 0.909108 
-0.216711 0.0248864 0.906669 
-0.215161 0.0248864 0.906669 
-0.214186 0.0249534 0.909108 
-0.212632 0.0249534 0.909108 
-0.211078 0.0249534 0.909108 
-0.216711 0.0264361 0.906669 
-0.215161 0.0264361 0.906669 
-0.213611 0.0264361 0.906669 
-0.212061 0.0264361 0.906669 
-0.216711 0.0279859 0.906669 
-0.215161 0.0279859 0.906669 
